# .PCD v0.7 - Point Cloud Data file format
VERSION 0.7
FIELDS x y z rgb time_stamp
SIZE 4 4 4 4 4
TYPE F F F U I
COUNT 1 1 1 1 1
WIDTH 1031
HEIGHT 1
VIEWPOINT 0 0 0 1 0 0 0
POINTS 1031
DATA ascii
0.45989689 0.72970074 0.78423584 10493860 5302
0.45456871 0.10088177 0.62721872 1869651 5303
0.22514443 0.14313704 0.63952386 13941167 5304
0.46642143 0.54271698 0.015568277 5032377 5305
0.84778726 0.50992692 0.37385264 12095719 5306
0.65734118 0.3871415 0.95942289 5886638 5307
0.95593357 0.95170671 0.89446682 14852825 5308
0.039088037 0.13054466 0.9132058 16376603 5309
0.38906655 0.28190866 0.37735251 13933091 5310
0.51162082 0.75746459 0.49347985 12865149 5311
0.11519559 0.10766219 0.80786592 3816321 5312
0.86820352 0.50517273 0.25671065 3873450 5313
0.53273904 0.12741306 0.29265556 7752092 5314
0.28058034 0.19509149 0.39005148 15451781 5315
0.64148581 0.11134712 0.05719341 16521322 5316
0.55569011 0.11201617 0.61517662 2752136 5317
0.66855997 0.054838169 0.66958857 11674331 5318
0.087381527 0.35024753 0.88532662 1420403 5319
0.48817989 0.07677272 0.88644308 10233899 5320
0.17796017 0.37619141 0.59751648 4011159 5321
0.74266797 0.066847168 0.70635325 15980376 5322
0.52226037 0.098963201 0.94782603 3945825 5323
0.94976246 0.11161537 0.11558206 4302659 5324
0.52644068 0.97983235 0.98854715 1766825 5325
0.89905316 0.036023866 0.099444136 12932116 5326
0.090906665 0.013845442 0.67744839 11988634 5327
0.69024777 0.8939504 0.20681478 5154385 5328
0.40340838 0.03556177 0.342664 4718218 5329
0.43076485 0.3970916 0.81414878 773848 5330
0.14256474 0.70902848 0.70823634 9820483 5331
0.85261005 0.29650477 0.99325919 7138093 5332
0.63791001 0.78401244 0.25889963 2246973 5333
0.07577341 0.82549465 0.38026071 5718264 5334
0.25275385 0.77524996 0.64800316 12900218 5335
0.73911506 0.33712667 0.16700703 9183335 5336
0.42676517 0.43174562 0.66910988 931463 5337
0.78497362 0.59971404 0.54688698 13786827 5338
0.38857222 0.52021229 0.79446793 600324 5339
0.019744515 0.19140351 0.91420293 11390631 5340
0.12572624 0.99742121 0.44589153 11925331 5341
0.6653384 0.8715378 0.45677269 12112979 5342
0.097322851 0.076535828 0.018290825 12771821 5343
0.61318308 0.50898135 0.98294199 5372393 5344
0.54660398 0.29755878 0.11299514 2468034 5345
0.56957173 0.091032721 0.36872247 16745764 5346
0.040490307 0.049104407 0.68503284 7297727 5347
0.91583979 0.48087555 0.053130843 5332144 5348
0.39686027 0.73826849 0.68252128 16661146 5349
0.30139387 0.69252342 0.25789434 14464318 5350
0.78569025 0.722902 0.31423354 13402515 5351
0.96790779 0.77885556 0.74710393 14369424 5352
0.62953562 0.19195831 0.61153221 6968711 5353
0.85620642 0.52294916 0.47488612 12292779 5354
0.49906328 0.20414525 0.31332901 15423216 5355
0.98015845 0.40422451 0.18956131 3653875 5356
0.99239159 0.52654499 0.7067821 35848 5357
0.87015218 0.80902123 0.17485893 12292449 5358
0.21830204 0.34789416 0.823897 11691911 5359
0.31399372 0.38568518 0.93079364 10004823 5360
0.093982048 0.12280128 0.95355242 16452108 5361
0.21146987 0.40958485 0.038734645 11916617 5362
0.90115255 0.01923256 0.027241521 13246722 5363
0.37695935 0.71921903 0.86682338 2168086 5364
0.92750472 0.72640091 0.13913046 11078524 5365
0.40762627 0.44770569 0.40457454 4952153 5366
0.87336832 0.94271892 0.2313527 1324035 5367
0.13032322 0.76212347 0.39966565 13614474 5368
0.676494 0.21509431 0.61980164 8391171 5369
0.29676265 0.3434554 0.75860971 6904705 5370
0.71766639 0.60938007 0.56003904 3516070 5371
0.94400877 0.84392703 0.23400702 12325465 5372
0.55579454 0.88635319 0.85710138 2703113 5373
0.8560428 0.7204119 0.91033065 10588668 5374
0.50805324 0.56049192 0.66973668 1740809 5375
0.37899631 0.71405143 0.48087054 11643658 5376
0.23032348 0.78030109 0.29535627 8189211 5377
0.55930841 0.51145715 0.93773943 2285259 5378
0.11164608 0.3229602 0.70206928 1913453 5379
0.34825802 0.30685791 0.52629048 13103140 5380
0.88948524 0.95251721 0.23672695 3423558 5381
0.82178497 0.12187607 0.85332042 4657525 5382
0.16852753 0.14551495 0.3204402 15534344 5383
0.087924331 0.67357075 0.11031778 9720268 5384
0.75579214 0.043805528 0.21598037 9777555 5385
0.80475813 0.95128548 0.74201846 5584221 5386
0.11450441 0.14342624 0.75544715 1817347 5387
0.77680784 0.42909503 0.48716867 12258036 5388
0.88460565 0.62328637 0.72266412 6182778 5389
0.90404582 0.16907208 0.46201718 13495830 5390
0.90952748 0.25591287 0.4751029 8453453 5391
0.285117 0.41190237 0.94017041 13612156 5392
0.38221785 0.15653506 0.62983292 12452260 5393
0.91847986 0.13838872 0.7884813 14361534 5394
0.059355658 0.037357964 0.37083328 3873542 5395
0.045190252 0.066911638 0.077900849 6945964 5396
0.31703731 0.0035745921 0.78720123 7907833 5397
0.45794559 0.42635661 0.32346347 9321024 5398
0.25297347 0.21422301 0.7156353 10078248 5399
0.24321596 0.91472268 0.88630539 7297424 5400
0.43603724 0.48128578 0.11060119 2364425 5401
0.88923693 0.31861624 0.83263338 1393804 5402
0.8433665 0.033769514 0.30312872 5097283 5403
0.74407655 0.37452149 0.81309485 9606137 5404
0.30865929 0.6591922 0.5831846 3169137 5405
0.23865423 0.7092787 0.50056589 13497392 5406
0.17831419 0.11245367 0.82076108 12179776 5407
0.88771969 0.6322583 0.43035454 5125440 5408
0.78972024 0.54316485 0.92642403 12735950 5409
0.27127704 0.31153595 0.0015924838 13844500 5410
0.87374181 0.74515486 0.98411262 6344153 5411
0.87645251 0.27272448 0.31978303 9198711 5412
0.093798615 0.17139168 0.74093312 4583573 5413
0.076055706 0.15196031 0.083186194 12600749 5414
0.34488004 0.026052475 0.39759883 4772861 5415
0.62130648 0.75425589 0.64925432 4290507 5416
0.81274843 0.0050160922 0.016389064 12162251 5417
0.24120632 0.79602832 0.47145277 9479774 5418
0.52216077 0.39623716 0.98565316 8252709 5419
0.69140983 0.74359697 0.76648104 15254521 5420
0.99310815 0.71137595 0.40125108 14901640 5421
0.38602707 0.12954348 0.53483075 1979685 5422
0.70247722 0.5032813 0.033088747 5764652 5423
0.0076228031 0.007581485 0.74950737 9803846 5424
0.73370451 0.30433831 0.89182127 14789253 5425
0.14718078 0.38645512 0.69326669 15430406 5426
0.078246526 0.41484466 0.13960522 278712 5427
0.85013771 0.51973796 0.90496147 11501844 5428
0.23649667 0.70129073 0.39796367 3525575 5429
0.13422829 0.42827123 0.31523043 3958580 5430
0.0079402626 0.075637609 0.095032543 6696248 5431
0.71126872 0.70231599 0.5386948 15771291 5432
0.25255415 0.16553101 0.87569356 13074246 5433
0.54789782 0.28525415 0.27065223 757831 5434
0.95675361 0.40548646 0.39349017 6047541 5435
0.98056144 0.43947625 0.39758462 5599141 5436
0.19944412 0.85195196 0.72397012 15256812 5437
0.094094455 0.95538002 0.20489439 4734011 5438
0.53914946 0.66079342 0.53890604 664102 5439
0.77502066 0.56340849 0.21565071 2052472 5440
0.4904578 0.81595397 0.086662948 13383921 5441
0.90969652 0.090992063 0.079298116 12103066 5442
0.67302996 0.9232254 0.73750401 6322251 5443
0.13157625 0.43216288 0.5111931 3215493 5444
0.48064652 0.016985223 0.68125647 8946123 5445
0.34348392 0.67595387 0.33260295 8561638 5446
0.65749305 0.47369277 0.31514296 4312153 5447
0.51891518 0.78038937 0.067499347 15388930 5448
0.10681882 0.78988999 0.39267564 9936409 5449
0.73585987 0.94101882 0.65162545 9862908 5450
0.93376535 0.98079997 0.51307535 1049206 5451
0.49051917 0.068439893 0.55076438 10597975 5452
0.94993603 0.32414621 0.43851313 8682393 5453
0.97794813 0.68738419 0.88671684 9324709 5454
0.0052640024 0.041255996 0.28810793 2292505 5455
0.49401093 0.39213768 0.90622395 15887771 5456
0.084157869 0.14902513 0.3856107 15860935 5457
0.29304603 0.90462327 0.51498801 1147860 5458
0.82838601 0.90000677 0.78293759 11638732 5459
0.062192004 0.27589455 0.12958971 15819052 5460
0.27572393 0.42679495 0.98009974 10777334 5461
0.49911872 0.51803911 0.78763086 5229917 5462
0.075571187 0.44600737 0.64694136 7284959 5463
0.68611258 0.0059525757 0.46900678 13075584 5464
0.55738384 0.78324747 0.015531868 12962848 5465
0.2749356 0.40927133 0.37511083 8026899 5466
0.89364105 0.090337962 0.32703114 13175483 5467
0.42358997 0.050638571 0.92599988 8622073 5468
0.63953131 0.32731029 0.10951898 4954705 5469
0.84817541 0.3537443 0.61382186 9106424 5470
0.8120231 0.31565344 0.15664062 4939339 5471
0.996126 0.46432981 0.83819783 5084944 5472
0.80314958 0.56919163 0.86390376 14237888 5473
0.83271587 0.27925429 0.83241183 10481196 5474
0.77280927 0.23596773 0.98251659 1852237 5475
0.13400044 0.9116981 0.33888784 15022479 5476
0.038500927 0.094958022 0.3739064 3597812 5477
0.689964 0.22126471 0.08869978 7849714 5478
0.058969285 0.78312999 0.0076770284 13187459 5479
0.5201534 0.4981741 0.63143706 5260927 5480
0.52590436 0.018805666 0.64281017 13582502 5481
0.77436882 0.34794766 0.83660018 12363555 5482
0.66778332 0.91461039 0.47598004 6513878 5483
0.48490587 0.5274474 0.20952421 15426985 5484
0.88805228 0.93898195 0.43306312 11250456 5485
0.25060144 0.9675563 0.33667403 9902515 5486
0.63505375 0.60671729 0.99406838 8074443 5487
0.72636932 0.42277586 0.13332519 11421725 5488
0.62874359 0.66416484 0.12925074 16091421 5489
0.77315682 0.044800039 0.4870612 7381540 5490
0.52408832 0.81489086 0.89626938 16540806 5491
0.50688308 0.34335622 0.33533514 13901107 5492
0.7196663 0.54137951 0.51310349 5728865 5493
0.45479482 0.37247252 0.35652733 3007624 5494
0.13212481 0.98389715 0.55807513 12841762 5495
0.54789913 0.71420544 0.93725538 5535827 5496
0.17278634 0.081850901 0.98891401 14285843 5497
0.59844911 0.30246872 0.34530374 2487097 5498
0.80391508 0.61025506 0.4615052 8754189 5499
0.6737175 0.3264254 0.65614265 9216643 5500
0.35415718 0.49351054 0.56046522 10345847 5501
0.93697035 0.11046538 0.21728392 15110812 5502
0.72980857 0.21703596 0.10255507 13157163 5503
0.16414499 0.13250366 0.86827034 2870823 5504
0.2978957 0.9666636 0.38899636 13133992 5505
0.80029815 0.55261338 0.82811832 4895758 5506
0.49619636 0.78099626 0.87626278 6458201 5507
0.51356661 0.4366892 0.71188557 3558843 5508
0.87413698 0.67594653 0.17297781 16022227 5509
0.80497825 0.59949237 0.43258747 2194198 5510
0.52858245 0.35382888 0.18365707 16388577 5511
0.12249815 0.21078859 0.80867928 13579537 5512
0.49361053 0.43783548 0.95224911 2124516 5513
0.24597023 0.92809415 0.13999715 14663854 5514
0.8848719 0.47547969 0.041086242 6421724 5515
0.94850308 0.19803676 0.94844586 10796981 5516
0.15984315 0.67723572 0.87382668 759742 5517
0.48408234 0.16960713 0.23593104 11788124 5518
0.9003821 0.62107342 0.21798231 13343464 5519
0.48197311 0.92489344 0.36396345 14331327 5520
0.11767634 0.19085588 0.23145455 5949763 5521
0.72916031 0.48285916 0.46342778 9919138 5522
0.40108255 0.93546396 0.30903155 4664129 5523
0.92690176 0.27217755 0.30520821 13405589 5524
0.033367839 0.79452991 0.27012312 7921807 5525
0.43074909 0.4352656 0.70333177 12382590 5526
0.44839573 0.23054814 0.50920701 759591 5527
0.051247917 0.2346177 0.89605254 931018 5528
0.0444142 0.79853308 0.54002553 4957466 5529
0.69485211 0.976785 0.64711225 12767745 5530
0.47745112 0.80486536 0.39996713 444297 5531
0.20713073 0.91546476 0.13190311 5362208 5532
0.67692631 0.87853616 0.20005596 1609026 5533
0.84082687 0.2832298 0.8702203 7219391 5534
0.23343474 0.32770431 0.79042244 11127788 5535
0.84524852 0.77013063 0.9694041 4334525 5536
0.14657065 0.15804429 0.35193783 5568854 5537
0.24391204 0.55130833 0.057762247 8555107 5538
0.51565528 0.96511406 0.57980764 14605160 5539
0.19951303 0.5794012 0.54036421 11996219 5540
0.15447421 0.30519673 0.60317439 10156156 5541
0.56035143 0.6969831 0.71213222 14423837 5542
0.091515325 0.21936888 0.13782257 527898 5543
0.44585544 0.17899214 0.22722381 11251810 5544
0.23832299 0.76438075 0.15259144 8586962 5545
0.61173087 0.90879041 0.91773635 1524609 5546
0.7689932 0.59302014 0.16513184 12023644 5547
0.067639686 0.59682471 0.35995758 6664694 5548
0.46757203 0.19195773 0.20228657 444280 5549
0.26798612 0.45594379 0.53153503 3038925 5550
0.033117175 0.84636188 0.19464165 8926394 5551
0.41900229 0.8302604 0.82033056 5144524 5552
0.7247228 0.37902549 0.92246467 9615655 5553
0.10797483 0.052059796 0.86052471 5259019 5554
0.077415675 0.014841754 0.53408933 9426499 5555
0.89480191 0.46853647 0.6150822 13852309 5556
0.31675392 0.83839232 0.50660974 14857948 5557
0.46272442 0.14724927 0.19702104 2355946 5558
0.053756032 0.33990449 0.83356857 9357923 5559
0.99242622 0.72758156 0.59526598 8266465 5560
0.29523584 0.23133415 0.49922177 2248981 5561
0.58666736 0.63753164 0.75700408 1359923 5562
0.91127264 0.23734049 0.32677978 2265733 5563
0.88980246 0.67628562 0.89861393 3173065 5564
0.30379528 0.58299255 0.27636138 10388094 5565
0.92974657 0.40474394 0.84422779 3565134 5566
0.34758011 0.90172935 0.80253708 13185773 5567
0.28411472 0.90627909 0.81449372 9455085 5568
0.16960396 0.90437526 0.11330888 1409588 5569
0.61699772 0.93154156 0.28686777 3847098 5570
0.50625271 0.76034939 0.8011198 11888740 5571
0.515486 0.53689784 0.017911136 3112117 5572
0.89517629 0.92559677 0.91919672 7866654 5573
0.14669327 0.70609522 0.83814472 3093490 5574
0.96387738 0.39131081 0.39743257 10243258 5575
0.64712101 0.79092264 0.98838484 5552724 5576
0.56442255 0.65688914 0.71460044 3927172 5577
0.59525132 0.87008858 0.28167927 13140230 5578
0.44821751 0.72645187 0.52426577 5641816 5579
0.75225323 0.95033139 0.68988973 5183158 5580
0.37772119 0.84819752 0.76548225 16105589 5581
0.54380864 0.86086088 0.56377459 5354271 5582
0.61449158 0.038445905 0.40877548 13790377 5583
0.7143414 0.0011114264 0.71498591 16558501 5584
0.53718609 0.039726846 0.65177131 12468533 5585
0.20163542 0.56713384 0.70104533 3162209 5586
0.87400311 0.47704846 0.85834455 14211725 5587
0.97646463 0.34994909 0.33998504 2064797 5588
0.37377414 0.96046132 0.8939904 5789336 5589
0.7902 0.73625451 0.22119087 1927627 5590
0.29481915 0.16496573 0.97773731 15994453 5591
0.99334818 0.0060865525 0.38802561 3116473 5592
0.15323183 0.42032892 0.47343224 15639786 5593
0.38609582 0.17934315 0.68001348 8045722 5594
0.46155024 0.058303207 0.61533648 10346413 5595
0.093344614 0.79509366 0.7436325 8201626 5596
0.98205912 0.78430635 0.8818025 11709147 5597
0.49356788 0.78923088 0.7459957 13915396 5598
0.68655223 0.66854358 0.73090786 219957 5599
0.24564762 0.41018003 0.057314273 14748630 5600
0.43965083 0.18626577 0.35268247 1765421 5601
0.058999263 0.23940679 0.92794698 226642 5602
0.2664685 0.1030594 0.35317692 4109583 5603
0.56402892 0.75661176 0.30416822 11761483 5604
0.29394782 0.36882508 0.66297799 14677700 5605
0.90885085 0.66946 0.9421649 12361511 5606
0.40517402 0.91174263 0.43891943 9525088 5607
0.89706707 0.11901285 0.15147033 10384631 5608
0.88586861 0.69550592 0.97814161 10316259 5609
0.44283485 0.28439048 0.47014415 10563821 5610
0.86171204 0.54450345 0.36941332 10265106 5611
0.003389569 0.21121079 0.13389926 11476413 5612
0.49071991 0.44139886 0.10545646 5349222 5613
0.86372012 0.57751149 0.93243945 11790982 5614
0.94318074 0.21038316 0.20727263 9335816 5615
0.11327821 0.17790805 0.38742864 15627920 5616
0.70484817 0.98517454 0.4046762 6744376 5617
0.82519102 0.91820347 0.39040688 1395160 5618
0.16758102 0.42411381 0.65956116 10044687 5619
0.022902623 0.20915626 0.63749266 16214357 5620
0.073100448 0.73575938 0.1315967 15651749 5621
0.6539945 0.92329907 0.098556265 10041800 5622
0.0076787258 0.58723754 0.44424328 749834 5623
0.48013532 0.68546605 0.42875081 624352 5624
0.56680596 0.80838913 0.90388256 16358693 5625
0.15798727 0.11166485 0.26212311 8293341 5626
0.40296569 0.22618842 0.40387306 173033 5627
0.027561758 0.29253787 0.75315708 9076919 5628
0.47644204 0.17075877 0.9565081 3173675 5629
0.5999192 0.87726122 0.55038381 13401966 5630
0.030165546 0.2395471 0.70061302 16534679 5631
0.77286267 0.93209678 0.49899539 9072964 5632
0.34265524 0.46118048 0.076392382 12174649 5633
0.36685437 0.40942755 0.9377746 1411595 5634
0.065357119 0.91453964 0.1254911 1140496 5635
0.20468909 0.44850698 0.44659802 9131306 5636
0.17810906 0.51365829 0.90782589 12892682 5637
0.46095896 0.033049248 0.80262512 12707594 5638
0.30436718 0.49571589 0.14503817 9989614 5639
0.49037167 0.88443547 0.37419826 3522288 5640
0.82291371 0.70486546 0.2410467 2345374 5641
0.24524084 0.78827667 0.49550065 15118472 5642
0.49451137 0.92634004 0.21894392 3504541 5643
0.03274706 0.7680586 0.84352136 10751074 5644
0.63744384 0.50057203 0.54703522 1828301 5645
0.80418181 0.93934846 0.7520771 5524948 5646
0.027070874 0.45410103 0.15052137 12681328 5647
0.70846623 0.10167914 0.54224253 16754081 5648
0.27521557 0.43156266 0.77399254 9603104 5649
0.78133667 0.24679174 0.28476498 276149 5650
0.3755835 0.062615663 0.34054825 14456364 5651
0.48990533 0.13491505 0.0035094945 7359046 5652
0.25632918 0.36595279 0.71235639 561755 5653
0.80450565 0.56857848 0.54273462 12501448 5654
0.36269113 0.4686521 0.39887428 11516186 5655
0.048655912 0.17260748 0.71992379 4483058 5656
0.93861264 0.79017341 0.96268302 3639494 5657
0.5527994 0.68692929 0.98612243 3437036 5658
0.37632781 0.29000664 0.84806383 13621724 5659
0.071145013 0.23119602 0.0040313685 8087115 5660
0.1273274 0.92730808 0.97366285 15798078 5661
0.67501915 0.25512487 0.064104356 6338270 5662
0.25787178 0.75004637 0.18163374 8415417 5663
0.52347952 0.39153004 0.9571414 8964013 5664
0.90692264 0.3817375 0.056842253 16243403 5665
0.71200937 0.97908419 0.86280245 1663397 5666
0.95960313 0.50135452 0.43443957 11380187 5667
0.51841193 0.3969284 0.38173294 13847671 5668
0.36718041 0.1644021 0.7884652 6308405 5669
0.14996803 0.44286808 0.4807952 7446127 5670
0.14230469 0.065831408 0.31163618 13826368 5671
0.18442184 0.71110672 0.63932604 10288427 5672
0.25054795 0.2532261 0.17531109 8805444 5673
0.029216049 0.32045221 0.98063576 7030847 5674
0.91673893 0.79474205 0.95944929 3524228 5675
0.73008615 0.143857 0.37910277 8639838 5676
0.17969391 0.33338597 0.84171301 4909484 5677
0.59740263 0.20279531 0.82975328 7202449 5678
0.58894736 0.86429226 0.1034773 11423425 5679
0.086164348 0.59871244 0.54299331 13903325 5680
0.35888496 0.72633278 0.68840265 12471733 5681
0.86859405 0.94774902 0.17075276 13327339 5682
0.2868343 0.36417159 0.32579544 11353393 5683
0.89961267 0.7258327 0.025163898 12098915 5684
0.75134128 0.38158017 0.30584982 9461623 5685
0.83888024 0.78607875 0.02842918 5076622 5686
0.36464965 0.39266056 0.74423331 351994 5687
0.65840256 0.38980195 0.87517393 3965960 5688
0.14506964 0.40600225 0.73789191 8551315 5689
0.87737095 0.16043353 0.41488791 3704446 5690
0.4853172 0.29364836 0.62816048 15745453 5691
0.31023067 0.18558088 0.54488754 1919390 5692
0.56546628 0.37938586 0.037657198 14841849 5693
0.45269942 0.50865352 0.95004898 14706487 5694
0.22389907 0.55625802 0.51957476 9602483 5695
0.4808687 0.22479597 0.26799127 4662759 5696
0.26125622 0.048773006 0.27450338 3457397 5697
0.45399901 0.66870332 0.37487254 4700710 5698
0.035702974 0.56204289 0.24710989 16549235 5699
0.34489325 0.97653329 0.48225495 6392645 5700
0.83881092 0.096188977 0.44652969 12247966 5701
0.19572468 0.46647438 0.23384503 13437699 5702
0.46571472 0.72661722 0.0057853288 15869334 5703
0.57904363 0.2539764 0.67717171 2384575 5704
0.75215048 0.58462161 0.40633926 5764932 5705
0.45613915 0.28790057 0.1178485 1426883 5706
0.087740861 0.59042746 0.78954107 16135589 5707
0.65866792 0.52637023 0.78877646 13920679 5708
0.77958208 0.94600111 0.26102626 10856047 5709
0.88655978 0.52430511 0.085376263 1938684 5710
0.31455857 0.21484974 0.82236648 4277708 5711
0.75547373 0.20525944 0.80749667 10415977 5712
0.6071741 0.18551324 0.39452243 12959050 5713
0.40300041 0.62954855 0.70748103 8047730 5714
0.16478132 0.97286212 0.003940783 15617603 5715
0.7846235 0.5803197 0.97750109 15855800 5716
0.82405919 0.76820052 0.30027911 15831713 5717
0.49970809 0.92038941 0.012637679 3906119 5718
0.6557104 0.71934032 0.49215275 5341499 5719
0.84282708 0.54814833 0.55131727 7493818 5720
0.60941917 0.58292943 0.39739817 2634585 5721
0.68193996 0.013978593 0.17832544 9626335 5722
0.80934346 0.1452426 0.41193017 12482638 5723
0.68458533 0.69518352 0.44761041 7556823 5724
0.75519317 0.90120196 0.37912574 1737626 5725
0.1235889 0.357389 0.76036108 4022288 5726
0.93111199 0.62624919 0.96425903 14930916 5727
0.60097826 0.41781175 0.75503612 7783833 5728
0.74117851 0.92437828 0.48969275 1785316 5729
0.019766323 0.85630953 0.44926965 3409528 5730
0.57632375 0.28640887 0.55462843 11278352 5731
0.28696522 0.73850793 0.12518695 12489251 5732
0.86101776 0.44892362 0.15146698 12831727 5733
0.41056314 0.2030105 0.31563815 15903735 5734
0.44832358 0.41156572 0.27306402 13357801 5735
0.094832689 0.38678154 0.7222929 15945181 5736
0.14839888 0.010431533 0.26819676 5490718 5737
0.0072410661 0.12267356 0.5650658 10562879 5738
0.54996794 0.14929062 0.22990832 4881275 5739
0.28236058 0.49787012 0.03327347 2366699 5740
0.99130857 0.49029604 0.2305128 13783770 5741
0.24329026 0.28815606 0.96441066 3909804 5742
0.62762922 0.56898296 0.34873998 13484355 5743
0.21959281 0.27765897 0.23675808 14457927 5744
0.071208872 0.42562565 0.78417474 7340724 5745
0.94821364 0.97235882 0.66993415 15262565 5746
0.13270554 0.92925054 0.097847432 10997347 5747
0.32318261 0.068366781 0.22857231 7009603 5748
0.75939006 0.4806546 0.23392232 8052274 5749
0.28245279 0.0013646134 0.80281305 5940498 5750
0.24626565 0.054060578 0.75622213 2287878 5751
0.72589117 0.36549255 0.37143296 4346726 5752
0.48332796 0.78579134 0.88053733 2626180 5753
0.6681636 0.21710405 0.62225372 80484 5754
0.2792733 0.49570501 0.55377406 4413246 5755
0.86594969 0.80859822 0.71368158 7899175 5756
0.064354241 0.4506892 0.31196114 1528615 5757
0.24795777 0.75775576 0.56036127 794848 5758
0.27009422 0.13781959 0.23517926 1478107 5759
0.4447574 0.31917879 0.9441365 1245998 5760
0.65815252 0.2672148 0.31506723 9425181 5761
0.31830272 0.95374089 0.49055448 9070208 5762
0.40483376 0.63748586 0.52273804 8450201 5763
0.98327023 0.036075175 0.13021363 104114 5764
0.66688097 0.37318051 0.48929793 11740021 5765
0.11748646 0.029864484 0.15777788 7734175 5766
0.47241896 0.72000128 0.00090538617 12666197 5767
0.72795576 0.75509894 0.027919319 12219945 5768
0.24308781 0.70356417 0.82997543 7985215 5769
0.54342055 0.58889455 0.13157907 10381170 5770
0.92328155 0.31739846 0.53315556 14860521 5771
0.12822396 0.22237115 0.65485543 7279849 5772
0.51956284 0.91330034 0.76021957 16584790 5773
0.34138241 0.4070819 0.18407764 13622789 5774
0.9297564 0.3238039 0.69498581 6137888 5775
0.56462657 0.27980396 0.21229629 11902506 5776
0.03263624 0.48908734 0.18461961 4427666 5777
0.69261229 0.13777952 0.28326452 741880 5778
0.93334538 0.026644047 0.85434049 9324347 5779
0.22351427 0.12775831 0.95852774 5026797 5780
0.81339794 0.75372034 0.59485406 14104648 5781
0.9879427 0.8841387 0.44480485 8264439 5782
0.54252648 0.26424268 0.20080104 16273819 5783
0.27304959 0.65041989 0.91270673 5128538 5784
0.76211387 0.99135721 0.23846693 13508962 5785
0.035691705 0.72325522 0.18128107 6645021 5786
0.58626324 0.73689216 0.91692221 1500430 5787
0.094089635 0.45198095 0.75279528 5762725 5788
0.18095338 0.55082154 0.12028973 404890 5789
0.20436876 0.44032547 0.87948984 1016976 5790
0.87039644 0.19665876 0.51260233 5744004 5791
0.084461026 0.41346779 0.99844396 6842832 5792
0.48993582 0.53862554 0.35987934 13290931 5793
0.71260089 0.014469594 0.18847282 13158079 5794
0.72102326 0.31249848 0.30700988 13711097 5795
0.38986021 0.62573057 0.66463566 8454110 5796
0.16401434 0.76186913 0.90530801 15784858 5797
0.070356697 0.25318816 0.88846946 8723421 5798
0.067887336 0.20852011 0.73645526 13324900 5799
0.12304456 0.76243395 0.15708345 34241 5800
0.89803135 0.75280726 0.53814822 3368808 5801
0.054507263 0.81928414 0.97742546 4349110 5802
0.30965921 0.052099124 0.99386597 15508002 5803
0.9201144 0.55022252 0.69830531 6792959 5804
0.50115466 0.92962718 0.50215 5714489 5805
0.5706557 0.25771299 0.61790431 8478599 5806
0.32436025 0.87488729 0.092458241 12890704 5807
0.042463478 0.14436179 0.12629978 8485391 5808
0.52611464 0.26260486 0.15885745 5221264 5809
0.96413606 0.42032915 0.89506733 184052 5810
0.33138314 0.64922297 0.5124619 5990271 5811
0.22246157 0.082387127 0.20772921 14029985 5812
0.38912049 0.42663628 0.18679358 9703337 5813
0.12405522 0.98908037 0.79188895 9240983 5814
0.24835278 0.17763641 0.1313926 14635740 5815
0.39816901 0.97530562 0.85918283 15984681 5816
0.24347287 0.14705464 0.69959682 6398349 5817
0.49363387 0.85109496 0.5104059 3234858 5818
0.20971154 0.49057043 0.96245205 13077726 5819
0.71266395 0.021835882 0.35358885 7178624 5820
0.054016385 0.563425 0.97281694 807157 5821
0.53040886 0.71752882 0.044464678 11478112 5822
0.31377533 0.66236472 0.35753408 5789828 5823
0.79755288 0.55250371 0.2146197 6289679 5824
0.93595731 0.26676813 0.0099386834 7062850 5825
0.28705752 0.16484106 0.73861963 16259822 5826
0.15728448 0.60844916 0.93020433 11337685 5827
0.7081883 0.15223017 0.76129997 3511123 5828
0.78977162 0.77396429 0.65659589 4027775 5829
0.99249417 0.46992657 0.47746822 400796 5830
0.17762747 0.04653025 0.75313395 15073477 5831
0.12892269 0.46368921 0.43962336 8821012 5832
0.15806226 0.37362668 0.43030837 5692643 5833
0.023454387 0.22912069 0.18068409 3199854 5834
0.89075035 0.22600617 0.18457986 8857149 5835
0.9565115 0.40606648 0.99058288 13522245 5836
0.5408197 0.45123628 0.76067674 11120844 5837
0.25852129 0.66842556 0.7997418 942414 5838
0.095549457 0.61124218 0.46821153 15416248 5839
0.99088687 0.18204282 0.92772973 8024831 5840
0.11951932 0.50677294 0.56223518 16606402 5841
0.40708974 0.75723815 0.33578503 7709084 5842
0.59388167 0.99620253 0.51457387 11758857 5843
0.63271427 0.78058165 0.71360385 15092304 5844
0.80264932 0.047702029 0.18693915 7806381 5845
0.88654774 0.34268805 0.24397352 14930598 5846
0.33333167 0.85987997 0.2176301 9603392 5847
0.51526499 0.62152815 0.95151383 14056973 5848
0.13220058 0.64786583 0.41712767 16017078 5849
0.8507008 0.55144095 0.52164489 8354935 5850
0.77484047 0.16836774 0.087501682 7263518 5851
0.47920597 0.95048231 0.40017191 11734716 5852
0.65214741 0.134864 0.04934651 9638660 5853
0.24020727 0.29690349 0.7123639 845803 5854
0.13127777 0.99340868 0.012596481 1813100 5855
0.39773625 0.80588913 0.4627842 14566451 5856
0.02552986 0.30390909 0.030417167 3083709 5857
0.85352015 0.65289259 0.78488016 7443213 5858
0.96736473 0.49676111 0.24648654 16400359 5859
0.14088415 0.28537381 0.38260317 13966780 5860
0.44789711 0.33603272 0.21954091 10456791 5861
0.9906162 0.84680051 0.34815314 8567101 5862
0.67104948 0.12602241 0.00179091 3741393 5863
0.40551272 0.99625379 0.75510585 4687428 5864
0.041193746 0.81686658 0.1945757 4276579 5865
0.83744872 0.4182443 0.46890485 9446048 5866
0.10123365 0.31954181 0.13697602 9926628 5867
0.79828513 0.011624659 0.53550071 1306527 5868
0.058420762 0.87306702 0.56064355 15302065 5869
0.72272849 0.56626004 0.053492561 7662687 5870
0.050176363 0.82750571 0.44208407 15301124 5871
0.80925673 0.98572898 0.090551496 11892849 5872
0.35571104 0.23340085 0.44275132 2252823 5873
0.45560154 0.091897637 0.7833727 15478474 5874
0.2528711 0.62815279 0.87469906 12308578 5875
0.33020341 0.59563333 0.69226176 16552390 5876
0.54329717 0.9239713 0.56248599 16502816 5877
0.064975314 0.22591512 0.23100261 9735374 5878
0.41803226 0.57272846 0.35637712 16333377 5879
0.50984395 0.84184468 0.88995415 3838830 5880
0.249299 0.47841176 0.031044494 15313575 5881
0.51831776 0.79399639 0.069730371 5744274 5882
0.078405552 0.49282038 0.16584957 14985095 5883
0.57388765 0.41857925 0.8557049 12930319 5884
0.19206619 0.12982811 0.2865231 10832762 5885
0.5174315 0.76367009 0.91314316 2740435 5886
0.69423509 0.22354859 0.95783883 9623333 5887
0.70389986 0.38275793 0.87850428 2110175 5888
0.15272589 0.2660538 0.29763058 8170112 5889
0.4531092 0.38838479 0.047442861 7493340 5890
0.17436372 0.98783666 0.32548401 1414036 5891
0.25134933 0.23054771 0.2542634 6813419 5892
0.59487206 0.69841301 0.94137371 12860267 5893
0.35242769 0.72088838 0.89959365 14049275 5894
0.56767303 0.18242835 0.48429701 15162627 5895
0.1769298 0.096424378 0.9425388 8871680 5896
0.53312862 0.43528059 0.70939916 3125083 5897
0.34600782 0.23934081 0.40232533 5504945 5898
0.92092139 0.065144852 0.69137615 1014258 5899
0.91642725 0.2828761 0.60312366 11974458 5900
0.3554264 0.074921787 0.62160867 2490851 5901
0.77681661 0.11046423 0.24082054 9128922 5902
0.19012807 0.2438641 0.1246301 6076436 5903
0.56294119 0.45216709 0.90249211 10585648 5904
0.67501265 0.18910939 0.90057135 7358134 5905
0.80332059 0.94526005 0.87348509 3024434 5906
0.23046924 0.020041859 0.56128496 4053402 5907
0.35657907 0.69638568 0.70300531 2956472 5908
0.31855646 0.8517803 0.68641806 16370357 5909
0.83874381 0.78111035 0.1482096 2674316 5910
0.53787851 0.86256725 0.6833033 1091506 5911
0.86218435 0.51796573 0.9465704 9566169 5912
0.88261044 0.34583461 0.14921375 2899124 5913
0.81986678 0.14560026 0.28983316 1341352 5914
0.46538505 0.20539267 0.17704117 1034709 5915
0.3516379 0.48258635 0.098855056 2603253 5916
0.96146977 0.75613427 0.90431732 14257318 5917
0.36086819 0.062213983 0.23940751 4973809 5918
0.94813478 0.46769652 0.21205157 14540007 5919
0.63389879 0.43936643 0.78409308 9221457 5920
0.047227785 0.40459898 0.21138728 11499441 5921
0.5324344 0.40100995 0.86147147 5515831 5922
0.33032465 0.6699183 0.103289 11478995 5923
0.63618344 0.12813498 0.21881528 1049720 5924
0.42693543 1.7331913e-06 0.63216305 8394707 5925
0.93982947 0.8581695 0.089723125 13248666 5926
0.25655395 0.53668678 0.93027329 2498837 5927
0.15910046 0.30376315 0.90924168 5098009 5928
0.013508216 0.50967878 0.21737686 12417860 5929
0.42512015 0.78484923 0.58348155 5567462 5930
0.74240732 0.93570721 0.25259271 4951686 5931
0.36139381 0.34347785 0.79353184 13643636 5932
0.53099048 0.62060374 0.070733495 14146393 5933
0.52947402 0.89650142 0.45390758 3193151 5934
0.33033067 0.55394506 0.59667057 4407973 5935
0.30823544 0.35363561 0.52825552 8959479 5936
0.81767321 0.54715985 0.95865726 6449967 5937
0.37817535 0.36981741 0.040764302 6694808 5938
0.39313766 0.33952355 0.82025892 8603469 5939
0.65886664 0.4167051 0.50302887 7667582 5940
0.84808552 0.6387527 0.46789277 8565149 5941
0.99152046 0.017254084 0.20081869 7938466 5942
0.37033829 0.0066344701 0.40946305 6708762 5943
0.33486009 0.84868097 0.55903614 9609593 5944
0.10420285 0.35459286 0.062115695 1759285 5945
0.72148889 0.45821559 0.031385705 8418319 5946
0.84304047 0.8260771 0.24822065 5597168 5947
0.083504789 0.14659309 0.88331425 15365702 5948
0.71248043 0.89255577 0.18753855 3606020 5949
0.91692716 0.15187763 0.23785762 15138624 5950
0.37167585 0.48059827 0.30620328 7936165 5951
0.63402814 0.5130204 0.96683699 5671930 5952
0.7589286 0.64038438 0.88968492 3042688 5953
0.98110038 0.84583265 0.33993638 14199290 5954
0.05190371 0.034276407 0.53948879 4472798 5955
0.13774902 0.38499513 0.77919644 11981711 5956
0.58471221 0.42208484 0.96219683 15643216 5957
0.29464102 0.063262224 0.15946077 15869759 5958
0.63170654 0.68660539 0.13864562 6714202 5959
0.35925406 0.90714806 0.29027125 4166899 5960
0.19734098 0.33465838 0.6885857 9752353 5961
0.42571381 0.36332288 0.89872724 15210799 5962
0.90698695 0.20951307 0.26632312 783438 5963
0.35926071 0.025545526 0.65843356 16567645 5964
0.75390118 0.35644248 0.42082593 683330 5965
0.34776294 0.45252627 0.95239371 4988714 5966
0.51299101 0.85477751 0.094327249 15346541 5967
0.61477911 0.14967506 0.21871237 4288355 5968
0.85293037 0.57538348 0.63809693 7976342 5969
0.0250418 0.827191 0.99172783 8656433 5970
0.063603014 0.21912636 0.69943935 2187483 5971
0.74700111 0.768466 0.98328054 10532938 5972
0.85052764 0.79496336 0.3756437 8131357 5973
0.68179142 0.52899593 0.16715001 11082892 5974
0.95517361 0.065401666 0.067630842 227246 5975
0.19381455 0.57487237 0.1581206 15752995 5976
0.021756982 0.33787021 0.18206155 15354794 5977
0.23100618 0.029726189 0.1572091 14865807 5978
0.19841635 0.78075761 0.36227062 14048589 5979
0.60600621 0.055819586 0.46803215 16425144 5980
0.61263126 0.19653557 0.55417395 7062869 5981
0.18434745 0.11154646 0.48291326 8420427 5982
0.72865474 0.34759018 0.69183797 10916729 5983
0.7191385 0.15265639 0.57156181 6776971 5984
0.48403963 0.12422893 0.72802734 16106696 5985
0.9313733 0.41049725 0.92728394 10737763 5986
0.63059032 0.36559659 0.12861991 16377968 5987
0.77561539 0.46066034 0.59279406 15251892 5988
0.25825757 0.065662734 0.69969052 9393583 5989
0.50202715 0.6311115 0.34214216 4390718 5990
0.96080291 0.51455659 0.55050534 11030403 5991
0.90516031 0.63069421 0.097351067 16728275 5992
0.27898413 0.51981312 0.29001701 9530782 5993
0.4188123 0.24552402 0.70220393 9133794 5994
0.33641604 0.57737058 0.48038733 11844331 5995
0.81856632 0.76822805 0.57812721 10317030 5996
0.10082616 0.56147522 0.20892526 751470 5997
0.027533874 0.87423956 0.47293615 12875873 5998
0.95409209 0.16483006 0.70572662 15681678 5999
0.50557184 0.61974889 0.35844064 12466112 6000
0.04952975 0.11687341 0.93409377 4310769 6001
0.20588805 0.58677125 0.15188389 5698271 6002
0.36793634 0.81248236 0.6213789 12096574 6003
0.3010751 0.084125273 0.53222668 4843076 6004
0.78787184 0.24599311 0.43530843 14514174 6005
0.31217819 0.28148201 0.8504889 2188013 6006
0.83668065 0.11502702 0.92320526 8118469 6007
0.73570389 0.89777666 0.52063602 2186538 6008
0.72447938 0.039724287 0.7347945 6012680 6009
0.07226558 0.83439785 0.72120893 6714167 6010
0.24118952 0.29288852 0.23464315 9122235 6011
0.42811245 0.37584117 0.25880912 4964134 6012
0.059471376 0.10010959 0.68642616 10959400 6013
0.23077665 0.18167169 0.46479958 15988061 6014
0.44078696 0.5106433 0.34572351 12319334 6015
0.115157 0.25940683 0.61932236 4975015 6016
0.49358225 0.77919775 0.53432405 5024938 6017
0.54104084 0.1899868 0.99883938 4023550 6018
0.65254229 0.00087084901 0.63770336 207245 6019
0.62866753 0.40722898 0.5867244 5496603 6020
0.30082485 0.68438184 0.86434859 3087970 6021
0.078630067 0.5277642 0.99463165 12742768 6022
0.51168388 0.82119644 0.31513384 3153810 6023
0.96655488 0.70120567 0.08609888 13076465 6024
0.6803394 0.44721508 0.45976985 7748340 6025
0.87200552 0.72243094 0.71337652 729829 6026
0.95178801 0.72120821 0.27532268 3259258 6027
0.071566656 0.84584618 0.37667468 13588604 6028
0.47192854 0.32292432 0.12654376 2707080 6029
0.61056828 0.60752195 0.39230639 3087018 6030
0.099332824 0.74659127 0.5363434 15382464 6031
0.56026781 0.43473342 0.90012974 14243700 6032
0.39106873 0.45271969 0.080138281 11519987 6033
0.19308151 0.31134871 0.75943202 2904521 6034
0.2647166 0.47994441 0.29413658 2333318 6035
0.47093543 0.64961535 0.9153136 7055594 6036
0.1862004 0.022592481 0.83299243 14963046 6037
0.32062224 0.24925168 0.66686517 15946534 6038
0.83726823 0.21007663 0.81763405 6400928 6039
0.28331485 0.79441851 0.16695452 9929382 6040
0.74617374 0.92237693 0.36685246 5290765 6041
0.059746411 0.11585616 0.85176963 4836054 6042
0.10688432 0.52280855 0.95920426 988621 6043
0.28003481 0.76083732 0.18627599 8675063 6044
0.78467894 0.64085239 0.51039642 3219417 6045
0.66887057 0.96447754 0.88421476 3968484 6046
0.86490017 0.68571138 0.92972672 13504660 6047
0.42662236 0.68533456 0.65472156 2019275 6048
0.36202598 0.73911881 0.33912799 3705126 6049
0.26427987 0.62146658 0.33751795 8839118 6050
0.73651415 0.24197063 0.52029932 8975256 6051
0.43459946 0.14259377 0.83197564 3541615 6052
0.49623916 0.2858859 0.095760368 8441087 6053
0.72925144 0.03373846 0.29396319 1306510 6054
0.76504493 0.84632027 0.75221741 15246620 6055
0.65838462 0.35751069 0.56728816 12684486 6056
0.32494822 0.41283906 0.98757553 12070412 6057
0.56734967 0.27340436 0.13272497 5732486 6058
0.21795444 0.15361652 0.83817589 6018861 6059
0.64266849 0.98704088 0.26653662 2554097 6060
0.72020346 0.7479884 0.24504387 1404801 6061
0.13247333 0.25162062 0.63612252 14516391 6062
0.96688795 0.97589415 0.68669206 10747671 6063
0.90405035 0.85695869 0.26467368 6730417 6064
0.16244264 0.011544777 0.47371051 14664122 6065
0.31651244 0.12663412 0.31130272 12916952 6066
0.78483981 0.54659903 0.48959574 12570657 6067
0.83425003 0.6335358 0.8740344 351433 6068
0.63199925 0.6371991 0.36999726 16248017 6069
0.38334259 0.54186803 0.75041837 6971182 6070
0.42036739 0.28735974 0.28348318 9368906 6071
0.9696452 0.6337558 0.24420789 523022 6072
0.35738114 0.88896817 0.54439163 15886116 6073
0.74445409 0.041909516 0.91473943 14383766 6074
0.85332495 0.32192507 0.83603287 1674612 6075
0.7605924 0.59934551 0.094239905 8011929 6076
0.74168444 0.30066082 0.57691181 175823 6077
0.89674807 0.11728285 0.52059805 14273176 6078
0.71868002 0.093152463 0.97241783 10969238 6079
0.92758429 0.060928829 0.23292539 5449286 6080
0.57049739 0.42526454 0.011249062 7071801 6081
0.60789323 0.21102448 0.6429255 14266255 6082
0.81643492 0.093664855 0.52011007 14260528 6083
0.26754135 0.25348455 0.96196085 9256470 6084
0.15095951 0.81448835 0.23049356 14470986 6085
0.79578841 0.14860292 0.32043025 1770145 6086
0.14930217 0.42123342 0.00079480466 3530749 6087
0.19505486 0.42247337 0.29137644 2842967 6088
0.58397335 0.027047733 0.079665534 1138733 6089
0.71549892 0.41796643 0.78105789 4939640 6090
0.84115821 0.59763974 0.50776637 5152016 6091
0.9513588 0.5539794 0.74233997 4007926 6092
0.14986518 0.54126191 0.77085179 16259040 6093
0.26742259 0.84040016 0.55740589 4097043 6094
0.3136577 0.10183331 0.24237926 1374197 6095
0.45387906 0.88898402 0.64187032 10214163 6096
0.28275201 0.0019312846 0.60052693 12715821 6097
0.3734704 0.10395005 0.48799586 3619376 6098
0.67468035 0.81261426 0.58482283 13289510 6099
0.056499109 0.47336009 0.072990514 7555274 6100
0.34310895 0.021954754 0.0098003559 14643250 6101
0.031526797 0.26635218 0.062304139 16309763 6102
0.57878768 0.66491455 0.12033907 4116094 6103
0.81120628 0.48391712 0.478145 1093841 6104
0.36718634 0.77250248 0.11120749 590157 6105
0.56099319 0.41448981 0.70123792 2771346 6106
0.6311664 0.43099585 0.95119029 5780364 6107
0.70985955 0.6418373 0.90754902 10524401 6108
0.49572933 0.51982713 0.20070289 2561416 6109
0.61172175 0.28304258 0.68920875 16602391 6110
0.40221241 0.28421262 0.17507941 7164874 6111
0.78828847 0.48617253 0.0055443076 11339833 6112
0.98211324 0.88950258 0.71043116 6030376 6113
0.60644811 0.21543051 0.93887913 2443586 6114
0.72385722 0.80102664 0.13777798 12795619 6115
0.17365561 0.92616826 0.14521003 6092384 6116
0.92328346 0.81790709 0.48638868 2990872 6117
0.99742168 0.53949916 0.5555343 16267648 6118
0.12690486 0.035609547 0.490666 5156076 6119
0.92051941 0.56661779 0.48099747 1973612 6120
0.91929483 0.15333939 0.93112159 939499 6121
0.06472104 0.42535788 0.7786473 8300932 6122
0.21714146 0.35160732 0.87553233 1247385 6123
0.047911234 0.18636502 0.3403033 3569613 6124
0.21854807 0.17266846 0.74968159 5317956 6125
0.70449883 0.1502607 0.88270473 11744402 6126
0.59636062 0.27948663 0.81013703 8331447 6127
0.71104109 0.047737803 0.51593006 6605518 6128
0.89126718 0.86832482 0.76175523 2004078 6129
0.41463435 0.62545007 0.18657273 1181850 6130
0.89368135 0.029494496 0.56779933 9664757 6131
0.16116525 0.26147556 0.062051486 3380920 6132
0.13562499 0.34752458 0.94038564 11664953 6133
0.22694522 0.82536519 0.62912399 7805227 6134
0.0026047104 0.47157001 0.66147614 5969642 6135
0.60671604 0.5295673 0.015966259 11927592 6136
0.95708019 0.46711865 0.94255674 4479445 6137
0.91177952 0.57404596 0.92656487 7140717 6138
0.61296433 0.45254618 0.68602806 3992450 6139
0.27811438 0.44385132 0.21453375 4795549 6140
0.92606223 0.2397448 0.379987 14931979 6141
0.6231097 0.37134033 0.15305904 4901002 6142
0.14470674 0.30225155 0.16552588 9384131 6143
0.93193448 0.76738107 0.84367299 6623779 6144
0.36092627 0.28758377 0.72877097 7324448 6145
0.42587972 0.15323651 0.60154456 1563162 6146
0.49180713 0.71837473 0.38714498 5451622 6147
0.23634611 0.42874792 0.079868577 11328859 6148
0.79299885 0.431954 0.0016663303 10960707 6149
0.92159152 0.41084281 0.2987195 12555905 6150
0.012162194 0.41218254 0.67913026 2275922 6151
0.62951136 0.70985639 0.49276999 14298982 6152
0.79427338 0.59106863 0.2055591 6994066 6153
0.10842726 0.78593946 0.13753264 16175019 6154
0.12122932 0.34420282 0.59829199 16210537 6155
0.94584256 0.0067274841 0.9967773 15752390 6156
0.39936808 0.2499456 0.92468292 7959249 6157
0.66894925 0.060875379 0.8704741 9706646 6158
0.58008695 0.043444619 0.64935416 9623694 6159
0.90506876 0.27476752 0.41616836 1051266 6160
0.087955534 0.6405589 0.41746113 8811288 6161
0.29955938 0.66489977 0.28784093 15675170 6162
0.5036478 0.22598708 0.6153183 10461937 6163
0.23753658 0.6805824 0.59378028 16013995 6164
0.95885628 0.30327076 0.022085994 11184328 6165
0.78575826 0.89458704 0.35736123 15313341 6166
0.24111474 0.27887928 0.28779274 11724194 6167
0.083398558 0.0067693768 0.070817672 11093331 6168
0.24905248 0.61842781 0.85189545 7171958 6169
0.59015119 0.46417487 0.55336821 14130102 6170
0.32903951 0.6249578 0.25458679 15315586 6171
0.30929372 0.069291912 0.51278597 1730141 6172
0.44191703 0.68164611 0.022676947 7136585 6173
0.68404776 0.62941545 0.021995993 14413107 6174
0.78604072 0.062399391 0.99148941 6282688 6175
0.69940865 0.0036761146 0.45564669 15623482 6176
0.18790215 0.99937057 0.3531158 15214165 6177
0.71659571 0.038374051 0.63300949 4870005 6178
0.14284082 0.23515654 0.64278793 5827042 6179
0.69215137 0.55714047 0.1774355 11573701 6180
0.51432973 0.59595805 0.85574824 16293286 6181
0.2538003 0.73785567 0.54519564 2225881 6182
0.55827945 0.15513948 0.18002674 493067 6183
0.20466143 0.037252914 0.96629202 7434755 6184
0.96248549 0.89424109 0.29453233 3911127 6185
0.99199307 0.092211619 0.78703982 4265507 6186
0.39356637 0.31598833 0.074849032 10185256 6187
0.080414705 0.48118389 0.66853231 3205355 6188
0.99157691 0.87713426 0.60019732 5625463 6189
0.69526082 0.68706906 0.69652814 9790754 6190
0.18087487 0.81898314 0.36662164 15902549 6191
0.30490804 0.060290761 0.744798 4663817 6192
0.89314991 0.07946749 0.14888631 13946834 6193
0.12462661 0.33148587 0.69849336 12869388 6194
0.52711093 0.98461562 0.11014607 11488667 6195
0.49804911 0.15528366 0.75611925 1158311 6196
0.29348046 0.4281064 0.48313442 330080 6197
0.7059809 0.70101339 0.56165469 16272846 6198
0.67622638 0.38732219 0.2330495 53304 6199
0.79779673 0.63925707 0.50702 4438588 6200
0.84507895 0.36094528 0.63671243 14589346 6201
0.024041835 0.51909649 0.18801717 12322925 6202
0.98936343 0.26335585 0.69689405 1838643 6203
0.45258176 0.79444945 0.34691182 12769551 6204
0.20803559 0.96696591 0.098315015 15346133 6205
0.19648434 0.71998763 0.32215649 1893886 6206
0.59310752 0.34522766 0.06686902 2238474 6207
0.77700537 0.84176737 0.88759983 7758127 6208
0.43348905 0.84536725 0.80027235 15273440 6209
0.2394588 0.73903406 0.93640745 1307375 6210
0.298985 0.65057397 0.53130376 4797916 6211
0.16891399 0.076878302 0.19771722 4789871 6212
0.86002702 0.63500839 0.89188844 7543829 6213
0.75344974 0.5423969 0.13004117 11186286 6214
0.52316362 0.56225652 0.40007371 5356648 6215
0.27088717 0.19901533 0.50473732 3665589 6216
0.65468049 0.98907077 0.065386377 5930943 6217
0.90251887 0.084880807 0.55839783 8275329 6218
0.079081245 0.58595741 0.20970252 16028408 6219
0.87016207 0.66284311 0.094756797 14183773 6220
0.1243991 0.39330134 0.19380248 12707313 6221
0.61764449 0.85017276 0.0030300799 2052774 6222
0.60642028 0.60508931 0.3127647 4430781 6223
0.83212376 0.47857788 0.73122972 860983 6224
0.57432652 0.55786234 0.53375238 10903233 6225
0.66387045 0.95249718 0.049467854 417876 6226
0.87163222 0.1992781 0.095132865 2029215 6227
0.10254619 0.48872921 0.40279266 3938390 6228
0.56058323 0.48567101 0.28086716 10480297 6229
0.16272222 0.1018238 0.52642977 2790797 6230
0.35264111 0.43477756 0.3070251 6004364 6231
0.64706904 0.16408272 0.087936804 16560985 6232
0.53990525 0.1412912 0.45897499 5747525 6233
0.74498719 0.11718532 0.59819329 3361804 6234
0.99442184 0.57172048 0.22751439 740752 6235
0.8753795 0.62083614 0.43319908 12948679 6236
0.071063317 0.6700142 0.8897323 11813136 6237
0.12924588 0.95212138 0.069768488 3879739 6238
0.70074314 0.63980651 0.7435559 10687540 6239
0.42462704 0.6600827 0.72427469 11271076 6240
0.65056288 0.05631382 0.61330593 6576241 6241
0.80941153 0.30978176 0.30626521 9002743 6242
0.62762111 0.59802777 0.67060268 2205447 6243
0.32376018 0.88699174 0.20522843 4573948 6244
0.21987027 0.61055523 0.530972 13706727 6245
0.93661469 0.91325957 0.76822013 5424595 6246
0.18617162 0.80643308 0.31672031 7961307 6247
0.21091813 0.13319804 0.38352993 4470254 6248
0.44694272 0.15434785 0.4567703 3397600 6249
0.52306044 0.44153419 0.25325373 1778303 6250
0.76593876 0.32229382 0.42920995 8186277 6251
0.54109746 0.05838605 0.23266454 13379088 6252
0.6433199 0.76174098 0.87143946 15719256 6253
0.59662843 0.090204492 0.85637498 16013762 6254
0.69609725 0.26543611 0.51957309 3121974 6255
0.46530136 0.085407332 0.22754607 9314743 6256
0.32074276 0.16066366 0.15814655 13188490 6257
0.29164872 0.66180134 0.47071043 16635388 6258
0.86511534 0.2852796 0.20417668 4237179 6259
0.79952919 0.034775551 0.21198845 1419942 6260
0.22435454 0.44942787 0.61686438 1697645 6261
0.55166113 0.66468191 0.39709422 3466267 6262
0.41877708 0.50973791 0.077376962 14728150 6263
0.0034596752 0.53794146 0.051307742 16732208 6264
0.15418869 0.058960952 0.42476162 8284246 6265
0.89763415 0.60241777 0.858316 7392406 6266
0.75092912 0.6059795 0.8669371 12308630 6267
0.56359899 0.73456424 0.59476429 14118671 6268
0.40700409 0.62751144 0.80553186 3558000 6269
0.84829789 0.98933649 0.12392458 1196842 6270
0.68194765 0.25314778 0.10440563 1562538 6271
0.74251884 0.51857537 0.76470357 6254359 6272
0.69448233 0.2301977 0.81505495 4791573 6273
0.55683702 0.27817771 0.06661813 7799211 6274
0.42733252 0.58478743 0.89110237 11172531 6275
0.053244926 0.53979456 0.49976373 11729394 6276
0.31637457 0.82257706 0.78598541 10749206 6277
0.16156885 0.12651539 0.68278188 6439802 6278
0.41573054 0.97259897 0.83213323 14160710 6279
0.38411456 0.76230037 0.15341015 16032808 6280
0.52183288 0.36680239 0.55105162 12790531 6281
0.28900668 0.84082752 0.45368692 6040751 6282
0.52757627 0.083474502 0.012235363 13585133 6283
0.76431364 0.47582886 0.40059632 9345692 6284
0.16506957 0.34229207 0.49786454 8589883 6285
0.3297368 0.13934192 0.17822441 11959775 6286
0.51189822 0.44994524 0.54350489 6590356 6287
0.85130513 0.052513599 0.54888505 12440262 6288
0.29153785 0.027185334 0.084812224 3451426 6289
0.42769834 0.78870171 0.38528183 6685266 6290
0.73698491 0.43691823 0.14213276 5596554 6291
0.61788666 0.82960486 0.75301653 10322765 6292
0.62680209 0.64649516 0.33046749 11424801 6293
0.78467053 0.80157351 0.62052453 16528359 6294
0.91247249 0.92140603 0.03285842 6187368 6295
0.30054519 0.58395386 0.57695806 12476540 6296
0.74574929 0.11704988 0.72426957 406046 6297
0.77671975 0.90524358 0.1659548 10621448 6298
0.70052648 0.86560124 0.47756398 99130 6299
0.56520772 0.64755648 0.89267766 5111975 6300
0.73810595 0.24585602 0.3236005 13463314 6301
0.20972875 0.43428323 0.93981355 14990810 6302
0.45345795 0.70976877 0.12349859 12038992 6303
0.29540321 0.51748246 0.070030548 13072474 6304
0.74423885 0.40374118 0.45267105 4173563 6305
0.37656319 0.73991328 0.64383787 9974299 6306
0.52292734 0.26470608 0.76665509 5398672 6307
0.68099594 0.65216237 0.40947291 7018836 6308
0.0089238565 0.56697834 0.74391139 9674819 6309
0.88406897 0.084184363 0.98618597 15261777 6310
0.7347219 0.097664088 0.72790653 9461479 6311
0.7109316 0.32075512 0.047589943 8346563 6312
0.1772908 0.46449202 0.89845669 11596863 6313
0.81319261 0.27791044 0.73701012 13583288 6314
0.13954879 0.24093381 0.16114001 11868218 6315
0.11372805 0.31239569 0.97990501 12356959 6316
0.62451845 0.40188709 0.098487899 440515 6317
0.91840279 0.056764577 0.34647599 15693888 6318
0.98689127 0.45672089 0.89337301 4607027 6319
0.80085707 0.15337364 0.49117166 5706875 6320
0.84423798 0.39283645 0.38124114 9623045 6321
0.60187578 0.85898954 0.47408369 5865718 6322
0.58234763 0.44950071 0.41032204 6830389 6323
0.54428619 0.25325149 0.51057118 10006014 6324
0.68789709 0.77800995 0.67776972 3015280 6325
0.24791415 0.58424503 0.34971458 2238049 6326
0.70135188 0.010263812 0.44317517 6647900 6327
0.52899307 0.29297513 0.42377385 1635807 6328
0.99316543 0.76608497 0.94338554 14067 6329
0.028132677 0.89164126 0.69854838 5910688 6330
0.66278052 0.31862411 0.02280047 5700698 6331
0.5966807 0.6491313 0.44145232 9668833 6332
