# .PCD v0.7 - Point Cloud Data file format
VERSION 0.7
FIELDS x y z rgb
SIZE 4 4 4 4
TYPE F F F U
COUNT 1 1 1 1
WIDTH 1000
HEIGHT 1
VIEWPOINT 0 0 0 1 0 0 0
POINTS 1000
DATA ascii
0.35222197 -0.15188313 -0.10639524 4291577084
-0.73189831 0.66710472 0.44130373 4281657516
-0.46070004 -0.2774682 -0.91676188 4279824392
-0.99898338 -0.463871 0.69178534 4288715828
0.43938732 0.56705952 0.90541744 4287417468
-0.75722837 -0.74907207 -0.65681171 4291310812
-0.57102156 0.12162399 -0.4628129 4285043828
-0.16589117 0.92615843 0.11429977 4288968784
-0.57059717 0.11092472 0.61923838 4279790800
-0.40181541 -0.73363447 -0.28856754 4278767620
-0.0013270378 -0.070649624 -0.13893318 4280074404
0.21194363 0.49470568 0.83621264 4286902428
0.1408987 0.19909716 -0.85077 4284262512
-0.66169214 0.54584789 0.3700633 4292898984
-0.89808083 0.26522064 0.46340704 4293707964
-0.57650948 0.76749611 -0.92066383 4284509296
-0.00085353851 0.32130146 0.63976955 4279037160
-0.94156933 0.21133137 -0.79614496 4288955544
0.46679926 -0.19516182 0.86614799 4283487328
0.033904076 0.86430407 -0.20159483 4293161196
-0.35270309 -0.89885283 -0.66527605 4283745452
0.87169695 0.38485098 -0.23461676 4290567168
0.51622438 0.27864122 0.047146797 4287899692
0.040380001 0.95310211 0.31851578 4280062196
0.43971205 -0.17613077 0.94520473 4288704748
0.80534554 -0.031522274 -0.27599144 4291586068
-0.41584873 -0.43319178 0.49456453 4287425728
-0.81464958 -0.40550041 -0.0065836906 4286063728
-0.25382519 -0.64504051 -0.56717873 4291324992
0.14559126 0.70120001 -0.95334482 4281633856
-0.28634262 -0.25533724 -0.66368628 4285590716
-0.45262051 -0.53111601 -0.40176678 4285330644
-0.24328089 0.0037693977 0.27100849 4285594764
0.22985458 0.98244143 0.94054794 4287654988
0.88546228 -0.80727673 -0.096764565 4288700616
-0.70004654 -0.002822876 0.5872159 4281660624
0.66769218 0.98222303 -0.059166908 4292667436
0.94243431 0.78088617 0.76302147 4279796908
0.79903126 0.76087666 0.98172998 4287166656
0.94161463 -0.6909852 -0.77841425 4279267404
-0.31259632 0.5410862 -0.49771738 4290545856
0.74656868 -0.15495396 -0.080650806 4291318820
-0.55334616 -0.94659328 -0.27559757 4288946368
0.20896339 -0.93411922 -0.98369884 4288958496
-0.78044415 -0.25292492 0.74886894 4283709536
-0.053752899 0.2793293 0.53108788 4285320248
0.38565636 -0.69948244 -0.44651175 4285277192
-0.75147772 -0.56542683 0.7178669 4291607604
-0.77165079 -0.14678764 0.050597668 4290032720
-0.31549549 0.26346159 0.6031332 4291326128
0.42337513 0.6508503 -0.52561188 4292378764
0.66290522 0.48503685 -0.67114496 4291304464
-0.11914635 0.038564682 0.75134802 4293165288
-0.41656208 0.23983908 0.24880886 4279551152
0.49009371 0.16899443 -0.44382334 4292633664
0.28828573 -0.97425699 0.91163063 4283196624
-0.20898867 0.64311123 -0.50395203 4291313824
0.43664074 0.74035883 0.32465553 4278515920
-0.41641426 0.92251778 -0.42401505 4293403812
-0.87489033 -0.95335245 0.2294693 4285032612
0.94206715 0.42816067 -0.14241982 4294460564
0.86470938 -0.018154144 0.4808979 4283230288
0.6468482 -0.46164656 0.080761433 4282435676
0.30764961 0.30992794 0.34235907 4293960852
-0.05589056 -0.73256731 -0.054439545 4292125832
-0.99458408 0.89078665 0.51359558 4289218760
0.70078278 -0.39080572 0.68627644 4283457748
0.52208328 0.61680031 -0.67365742 4278751328
0.022686481 -0.10404587 0.3626132 4292121792
-0.73604107 -0.27630138 -0.22763109 4287103140
-0.7050457 0.90269375 0.61187553 4287898680
0.51298094 0.4664731 0.96555471 4282692784
0.98724651 0.17023706 -0.44769287 4289748112
0.36627436 0.79576921 -0.96343422 4281374916
-0.76617622 0.42477417 0.53985405 4293691632
0.72728157 0.92924786 -0.66017437 4286852236
0.69551802 -0.74922085 -0.42801094 4279029924
0.59658003 -0.56271648 -0.60961962 4290550872
-0.71050119 0.11714745 0.95923185 4286374068
-0.85777998 0.07985878 0.54482126 4281646140
0.11920595 -0.18666649 -0.89163685 4287419396
0.56454802 -0.15199089 -0.90305901 4279016544
-0.64331961 0.10566235 0.98426151 4289729764
0.91052341 -0.45595169 0.85228205 4280868980
-0.010197163 -0.98766661 -0.22182417 4287911940
0.7137394 0.81361341 0.67756128 4289202216
-0.33173561 0.83719301 -0.32193851 4282397784
0.31218338 0.33041096 -0.70719337 4293433544
0.031579971 -0.012004852 -0.90859509 4284794888
0.58217955 -0.15244579 -0.026148319 4280302724
-0.77541685 -0.90408182 -0.51812744 4286101516
-0.26780319 0.58628559 0.59171104 4284262500
0.59740305 -0.33632565 -0.10414743 4284756196
-0.56243372 0.99169922 0.96131992 4283983952
-0.50951004 0.45774126 0.66662502 4287652916
0.13260126 0.042680264 0.14472246 4279764220
-0.63100767 -0.32297802 -0.35097075 4283696140
-0.47385454 -0.3153162 0.66419458 4278721668
0.3953228 -0.98753977 0.61601353 4286096624
0.17571354 -0.96807814 0.9493165 4291073176
-0.10885715 0.62886572 -0.1899066 4282172460
-0.90139103 -0.38766766 -0.56805944 4288429272
-0.25184155 -0.90081882 0.20390511 4294706348
0.036667347 0.91650248 0.79125881 4279004316
-0.85574389 0.44885874 -0.63538694 4281399352
-0.13901424 -0.8176589 0.48974276 4293931176
-0.57400179 0.31681585 0.34541512 4293920976
-0.62283993 0.81261301 -0.98236752 4284002508
-0.64013624 -0.7383666 0.45531464 4278206508
0.48381376 -0.94142962 -0.82268095 4282412124
-0.29069567 -0.98687077 -0.34914207 4284491908
0.93213034 0.11020708 -0.81411934 4288427256
-0.80400324 0.34530592 -0.93705225 4281881696
-0.24755812 -0.71376514 -0.45045233 4291320024
0.93621683 -0.078827858 0.5224328 4283971716
0.58205318 -0.52109671 0.68770552 4278720740
-0.89802408 0.6100812 -0.51787853 4286365788
0.5381918 -0.91637611 0.79557323 4280576172
-0.11094618 -0.95030451 0.0081791878 4280038496
0.90246439 0.1936698 -0.63329029 4278748304
-0.90052652 0.88925886 0.61521244 4282927200
-0.84090662 0.22414637 0.9032445 4283716676
-0.90851784 -0.94980478 -0.12550497 4278776028
0.60899973 0.54038906 0.22144461 4290548864
0.062716961 0.88145542 -0.32743311 4285829172
0.56573534 -0.59417343 0.86903191 4283197624
-0.52588892 0.35209942 0.2153492 4281396452
-0.8317728 0.084796906 -0.22245216 4293699744
0.21447134 0.58085251 0.96927166 4279770284
-0.085186958 -0.73925114 -0.17028189 4282952904
-0.43284655 -0.74408913 -0.45810223 4293656656
0.42738819 -0.089029789 -0.91299725 4281917656
-0.62990999 -0.54344654 0.1651144 4291576864
-0.42347956 0.71374702 0.71781921 4287113372
-0.50594473 -0.93552351 -0.82340002 4285271168
-0.54015493 0.21901035 -0.87731314 4280054836
-0.26335382 -0.9174161 -0.5294838 4283978944
0.9039669 -0.9045887 -0.78460407 4289215584
-0.79395199 -0.18042994 0.42841911 4283184284
-0.16028118 -0.14058208 0.64255905 4290827372
0.88309479 0.64303684 -0.4865737 4285801576
-0.43467236 -0.61857367 -0.7487936 4287425756
0.79468679 -0.89095736 0.071939468 4285056140
-0.27524471 -0.61582804 0.13455868 4281915500
-0.26874304 -0.85224104 0.35933971 4281631916
-0.33176804 -0.95282698 0.18556881 4287904988
-0.64971924 0.61828279 -0.78822517 4287131740
-0.42198515 0.44881439 0.52589321 4289996860
-0.035056591 0.18365288 0.088189602 4286326948
0.59942389 0.068084717 0.54398823 4291048684
0.50129509 0.11013317 -0.24476004 4280839408
0.51721287 0.6420722 -0.57352209 4286116936
-0.85416126 0.82157469 -0.4705801 4283437104
0.37574959 0.43647242 0.17197037 4284273736
-0.13983154 -0.86460114 0.57688236 4285301888
-0.88777637 0.59545755 -0.87108326 4278984900
-0.3243413 -0.2004652 -0.93721914 4292124712
0.1827426 0.67436123 -0.87208509 4280601752
-0.29952002 0.72184324 0.035916805 4285839552
0.381248 -0.95404911 -0.29270935 4278723588
-0.023085594 0.56233215 0.39691114 4292906012
-0.47346067 -0.89454508 -0.52123213 4292370660
0.89566088 0.39033461 -0.31834793 4287143980
-0.37697983 -0.19702291 0.74958897 4279265344
0.23082924 0.056675434 0.98132229 4283706400
-0.26042652 0.99172068 0.99376297 4283733036
-0.1842823 -0.37590837 -0.47098637 4289991704
0.30177641 -0.89092731 0.12694025 4294747188
0.011174202 0.75566912 0.032414436 4289778832
0.69613457 0.64543629 -0.23548222 4293459172
0.10888767 0.32313013 -0.22895479 4289244208
-0.47379017 0.27533293 -0.50731134 4287681668
0.79182959 -0.12840462 0.81517363 4282412096
-0.85179234 -0.13380194 0.70349216 4288693468
0.88846445 -0.6769042 -0.23646498 4293663872
-0.56769371 -0.8905592 0.67022228 4285321348
-0.92805099 -0.26169872 -0.59482956 4278991988
0.2707386 -0.4146452 0.8465848 4281346128
-0.96626472 -0.34766769 0.56780672 4286071848
0.85532665 -0.27858067 0.51786375 4292633724
0.96595383 -0.19329214 0.62785769 4281902196
0.76601362 0.082008839 0.57825089 4284239964
-0.85382605 0.91738558 0.95713091 4290253932
0.69436789 -0.96296644 -0.88641167 4293918804
0.45694304 -0.37041187 -0.33203745 4286067760
0.49322367 -0.78559637 -0.15092802 4288203784
-0.03896904 -0.38340664 0.94114065 4281395360
-0.088942051 0.93395185 0.50517321 4291851416
0.32944441 -0.37892151 -0.45449495 4283200540
-0.61042404 -0.65980339 -0.050645351 4285270188
-0.90009737 0.80822754 -0.58779144 4278491152
-0.1918931 -0.10966015 -0.12061787 4284274816
0.33703566 0.34067965 0.60111189 4286592180
-0.64931965 -0.46168661 -0.85109854 4281647272
-0.7840476 0.37092257 -0.62764835 4291350596
-0.63688803 0.52836418 0.49558306 4290278620
-0.96189022 -0.71455383 0.31523228 4284537952
0.58465242 0.37172985 -0.9144659 4280310012
0.71358728 0.56461906 -0.16728401 4279019572
-0.10535574 0.67675734 -0.81501484 4293969000
0.9543519 -0.79482317 -0.85818958 4286116940
-0.12517309 -0.98139238 -0.095403671 4292615340
0.93491364 0.52075195 0.31102085 4278723808
0.31485033 0.42010403 0.089579105 4286055676
0.96162939 0.17723799 0.22714138 4282690748
0.76006079 0.39858627 -0.72561741 4287125740
0.52102137 -0.27665186 0.27348804 4288974024
0.3649087 0.84832144 0.73034 4292662508
0.20088911 -0.8163805 0.85696125 4279259372
-0.15914774 0.29281569 -0.68320751 4278468692
0.13719988 -0.8005085 -0.84038687 4290541708
0.66646338 -0.37761545 0.73148298 4283757768
-0.85046053 0.41291142 -0.50678778 4293403752
0.3167367 -0.71026993 -0.45439911 4290573460
0.31325293 -0.57894897 -0.83039665 4283697364
0.39107275 -0.37375498 0.80852556 4292905020
0.55882072 -0.29570913 -0.46772671 4289498236
-0.064805508 -0.20621777 -0.0068125725 4278751464
-0.20961189 -0.0096006393 0.37175894 4289733824
0.21277666 -0.52264977 -0.62699127 4292356296
0.99141455 -0.50153112 0.48829889 4285576224
-0.29017115 -0.39202452 -0.76958227 4281651424
0.82237864 0.83347368 -0.3315568 4286073884
-0.10240507 0.052268505 -0.66749525 4281364652
0.22131157 -0.39896536 -0.02604723 4289760420
0.45637465 -0.025170326 0.57981777 4279281712
0.4708004 -0.51540136 -0.76305151 4287138856
-0.4241209 -0.4509201 0.96870184 4294228156
0.58642817 0.26224089 -0.71714878 4288171240
0.41553545 0.75290632 0.27214432 4291096620
-0.52916241 0.80360174 -0.7696104 4293164048
-0.32037115 0.21907616 0.48975849 4285020404
-0.9481945 -0.50382614 0.76553965 4278229228
-0.74890947 -0.6730752 -0.60757303 4281615448
-0.79494858 -0.33860636 0.67692852 4290793608
0.73275518 -0.47828007 -0.17224264 4283735152
0.96830463 -0.74799538 -0.2048912 4291828824
0.67452288 -0.77961206 -0.78842211 4294487188
0.57024813 0.49198627 -0.72100067 4293959812
-0.11330271 0.23097992 0.18625069 4293165152
-0.41221857 0.44093084 -0.24114656 4284531896
0.99157143 -0.62761927 0.58323431 4294245512
0.50208426 -0.49503326 -0.027795315 4282956004
-0.33426332 -0.48472261 -0.29491282 4280062188
-0.53040648 -0.63534975 0.9619956 4290035756
-0.10702229 -0.48394251 -0.88889742 4281633888
0.98306036 -0.076832294 0.88755941 4283977864
0.31811142 -0.78806686 -0.77702999 4279822336
-0.49658251 0.59133244 -0.31672335 4282967084
-0.060479164 -0.99433804 0.52587986 4293148872
-0.42831182 0.55448437 -0.029786587 4289760384
0.19796944 -0.81062412 0.82497787 4288468016
0.80353212 -0.92621756 0.74675941 4285320380
0.1945014 0.86751652 0.26368761 4278719592
-0.96099186 0.015542507 0.80541849 4282396724
0.019044399 0.48874712 0.021409512 4278252568
0.89106798 -0.63049269 -0.58289909 4284784740
-0.74912786 -0.74143171 -0.75344515 4285018344
-0.3300128 -0.52042818 -0.52182913 4289243336
-0.26656914 0.39635849 -0.43026495 4278460484
0.005774498 -0.01970911 0.97554159 4291047552
0.25490904 0.86061716 -0.48341274 4285536296
-0.15521765 -0.17246485 -0.76980782 4293923872
-0.29800844 -0.50484562 -0.0051651001 4287684712
0.73435497 -0.83773947 -0.25145626 4285331560
0.79088402 -0.29311514 -0.3099184 4282185928
-0.086494446 -0.011021614 0.52024794 4282927252
-0.59828377 -0.49422884 0.92444611 4284485720
-0.8528285 0.2991004 0.24476814 4282678388
0.49419165 0.2136178 0.83585835 4294197344
-0.047474384 -0.69140816 0.24385309 4294193296
-0.69776201 0.98852348 -0.033099174 4281874608
0.91939688 -0.17966747 -0.86633921 4279241948
0.59345722 -0.40058708 0.029870033 4294497348
0.51182318 -0.76438904 -0.27724934 4292113496
-0.11534977 -0.56912804 -0.45094919 4291610748
0.10642576 0.37571764 -0.38740778 4291084452
-0.29878378 -0.88239908 -0.14845896 4282686552
0.56564713 -0.4450984 -0.096804619 4293656764
0.1046505 0.90495062 -0.11977434 4283188400
0.067860126 0.13728285 0.78944445 4293937228
0.24097967 0.37221241 0.23864174 4292373648
-0.11521959 0.1467557 -0.44555283 4291569852
0.040104389 -0.45271969 0.070793629 4279252164
0.58791494 0.24744892 -0.63112831 4279022708
-0.17328691 0.14271069 -0.24121284 4282403900
0.47908163 0.00060176849 0.39678621 4284519504
-0.84543037 -0.26104546 0.98908091 4279295068
-0.77509117 -0.48461866 -0.48200512 4287894748
-0.24037647 0.046596527 -0.091758251 4287163640
0.75 0.34145117 0.12580347 4293979296
0.53336096 -0.56330919 -0.11397266 4279295212
-0.22752714 -0.69101572 -0.52084351 4288209116
0.73226833 -0.75708961 0.4698143 4288693492
-0.088943958 0.29823637 -0.024907112 4291044548
-0.19760942 0.17673159 0.83128166 4279244896
-0.18638039 -0.78111982 -0.77441835 4278999224
-0.5601511 -0.078499317 0.68898058 4294464612
-0.12656116 -0.58467722 -0.050107479 4290309208
0.2717495 -0.42335749 0.78674173 4287115292
0.73667288 -0.80166864 0.39020538 4290773080
-0.64315414 0.94014549 0.29460526 4294753528
-0.037576199 0.079642296 0.36513376 4281905160
-0.64161301 0.87208652 0.46351147 4290004036
-0.20321465 -0.51291037 -0.29426003 4278484192
0.79700089 0.4706049 0.30001259 4284778704
0.26293135 -0.60459423 0.36668396 4284261440
-0.99883032 -0.059742928 -0.91388035 4278752424
0.41449213 -0.049951077 0.95685434 4285327480
-0.99289894 -0.94488621 -0.34071589 4284743912
-0.18547773 0.43564224 -0.13617897 4279534652
-0.45892668 -0.11421919 -0.70221281 4285046924
0.91423512 -0.55551243 -0.78412199 4288675960
0.085122108 -0.77471685 -0.24241114 4286349464
-0.78582907 -0.88961172 0.07103157 4284520592
0.26667118 -0.36224794 0.14531565 4294767672
0.032874107 -0.70663929 -0.34605455 4280041504
0.60628223 0.11535358 -0.45824909 4287662104
-0.37029934 0.20083094 -0.42217445 4290269360
0.40320778 0.4569788 0.79150057 4292913276
0.18391275 -0.4028945 0.25248289 4280873040
0.097393036 -0.2395277 -0.70186901 4292887660
-0.15139771 -0.30258369 0.61460352 4279795936
-0.25710487 -0.85072231 0.93114328 4284497924
-0.99816656 0.93977547 0.63092947 4294472952
0.40806484 -0.40207195 -0.4415307 4292088028
0.66531801 0.024549484 -0.95346022 4283191368
0.46269894 -0.37550926 -0.16491032 4279265464
-0.19238472 0.75773954 0.50394487 4289002628
0.91270924 -0.91970634 -0.019711494 4294446220
-0.49499702 -0.71830702 0.99223185 4292630660
0.34953976 0.60755873 0.94393778 4290562120
-0.46624708 -0.96629286 0.34431744 4282422276
0.72350979 -0.081374645 0.1169014 4282132636
0.2679677 -0.42990685 -0.72434425 4292659388
-0.35743999 0.61873531 -0.56902313 4292646040
-0.44581985 0.031747341 -0.01922369 4283697372
-0.78205538 0.96158028 -0.41450882 4281880820
0.92142439 -0.94606686 -0.38487339 4292642976
-0.7663126 0.54935598 -0.15739584 4280821820
0.65862703 0.4401722 -0.42492771 4280577164
-0.53717852 0.62914419 -0.71097231 4291829988
-0.004617691 0.34520721 -0.32156515 4279302212
-0.72262478 0.82889414 -0.93720818 4286582808
-0.83498716 -0.89909267 -0.10646391 4288197772
-0.036046505 0.26887798 -0.86867952 4291608712
0.79630613 -0.17869616 0.83542871 4281880692
0.8021884 -0.73971558 0.30789804 4279504940
0.48948193 0.11853313 -0.95573807 4293434480
0.89645386 0.17604828 0.01238966 4284766384
-0.51886177 -0.85238123 -0.10848141 4279041032
0.81874323 -0.51704884 0.071305275 4293431512
-0.38313675 0.37047338 0.59649181 4287938792
0.14012957 -0.65942049 -0.44381666 4280550560
0.095873833 -0.21069241 0.74326706 4287917240
-0.2690959 0.060436249 -0.92544889 4287392992
-0.12757587 -0.50836134 -0.7558527 4280347848
-0.72006321 0.76267385 -0.81709385 4291879992
-0.68592167 0.82756519 -0.62541723 4290563164
-0.56251955 0.10783052 0.056744099 4290574544
0.10767984 -0.053001881 0.69647789 4284271776
0.94342756 -0.55815458 0.86101198 4286088336
-0.99999237 0.66551161 0.76949692 4290268356
0.21691751 -0.14398146 0.28449774 4282958904
-0.14106321 0.16376114 0.40428543 4278771864
0.551723 0.45218897 0.56737804 4279021732
0.61757421 0.57784843 -0.42135525 4283459724
-0.51459074 -0.2345686 -0.37026882 4291060820
-0.28816128 0.16526318 0.027689934 4294221852
0.29279089 -0.38429928 0.91773224 4291579936
-0.68254375 0.08310461 -0.28556967 4282399784
0.021633625 -0.051119804 -0.073300362 4293672064
0.56449795 0.91287613 0.45755482 4286637196
0.36590052 0.87962103 0.57116365 4281098376
-0.85243845 -0.83125162 -0.056371689 4287388704
-0.67246485 -0.81671858 -0.44188499 4280288396
0.39081669 -0.91025066 0.83830118 4284535984
-0.99036026 -0.74547434 -0.82135582 4279028916
-0.12690449 -0.1853447 -0.77395248 4286631040
0.77218723 -0.6441927 -0.72924614 4292387948
0.19082546 0.74863625 0.31986046 4282938420
0.63836145 0.1814189 0.47772551 4283179248
-0.25756884 -0.49142456 0.42227888 4291824648
-0.73249769 0.84886646 -0.31431103 4289210484
0.59555531 0.065313339 -0.75025749 4281862196
-0.9971118 0.97195435 -0.58051968 4292103420
0.71072483 -0.64074326 -0.60849857 4280577240
0.35620356 0.5783515 -0.60098696 4283448552
0.64951611 0.76692963 -0.77635002 4278216888
0.22914028 -0.14396429 0.58208942 4278766832
0.14972639 0.72523355 0.33517313 4291053632
0.77928925 0.75870752 0.41532516 4286347472
0.061228275 0.30336189 -0.170403 4281393272
-0.16497469 -0.26863909 0.095953941 4289477796
-0.42454815 0.29570627 -0.78752995 4283481092
-0.47923994 -0.075684071 -0.33995152 4281909444
0.91200161 0.27281237 0.4667387 4292346000
0.57857227 0.50483179 0.71725845 4293167108
-0.26280642 -0.1999011 -0.46953583 4288172156
-0.81041765 0.43422604 -0.10726309 4285795568
-0.66313267 0.11252785 -0.4083581 4294215856
0.70494747 0.88046265 -0.64202261 4291876916
-0.41441727 0.78636217 0.3064127 4286867472
0.10194492 0.9317255 0.071585178 4291321864
-0.77056074 -0.045544147 -0.63541412 4286058700
0.78950262 -0.30662441 0.068881512 4283989156
-0.53369045 -0.60476065 0.91780519 4282123392
0.62586784 0.15250874 -0.088042736 4294765676
-0.7962327 0.55729532 0.038214207 4291050644
0.2057128 -0.58085632 0.75754356 4287429696
-0.47334719 -0.66917706 0.80742788 4286103624
-0.36712265 -0.82172251 0.89295959 4291037316
-0.32372236 0.62843275 -0.38760614 4282939608
0.69472408 0.76448107 0.62503958 4293675144
-0.46397352 0.24554682 0.23388815 4290028552
-0.59237766 -0.65750122 0.10603142 4291065904
-0.28723001 0.57091045 0.99627638 4287389704
0.065615177 0.79787111 -0.37272596 4278251772
-0.25424623 -0.91916943 -0.047531128 4280849612
-0.81446218 -0.65020466 0.23785019 4290826372
0.19463444 -0.9490118 -0.60380507 4281895936
0.11866474 0.9788084 0.90513897 4285016312
0.11378288 -0.34984636 0.82460403 4294196368
0.92904472 -0.92608356 0.2915411 4285547724
0.87381697 0.63024807 -0.54489422 4280334520
-0.83463621 0.24430847 0.14945984 4281120780
0.89578772 0.66363907 0.39430666 4291070156
-0.17234039 -0.10763645 -0.37100124 4284542024
-0.13702583 0.56246519 0.031078339 4280832164
0.25982523 0.31779623 0.10603666 4292652116
0.81340265 0.59482813 0.40001917 4279533708
0.37836075 0.052175045 -0.39136696 4291326008
0.751513 -0.31923866 -0.72042227 4288712736
-0.66232586 0.19599915 -0.52453613 4282951760
0.84454155 0.61034012 -0.76276064 4287397004
-0.89371061 -0.86132574 -0.73846817 4290259040
0.45130253 0.47989798 0.4700942 4294448252
-0.55285072 0.0040788651 0.0039577484 4284762176
-0.36027431 -0.27773476 0.53298235 4287134828
0.034632683 -0.06444025 -0.50616312 4290050188
-0.061424255 -0.0075726509 0.95778275 4280326344
-0.38197327 -0.04996109 -0.46078253 4287420456
0.41131735 -0.54287624 0.79586267 4290539548
0.75225782 -0.17642307 0.9027195 4290805964
0.16873741 0.97339916 -0.070702553 4282125360
-0.51831722 0.18384743 0.80786324 4285034664
-0.5012145 -0.99801779 0.25663853 4282941536
-0.17021322 -0.4985795 -0.27626324 4282927320
-0.19389677 0.6689539 -0.26883507 4289988688
0.70256042 0.12293148 -0.35666943 4290279608
-0.55270624 -0.73281097 0.072449684 4294749304
0.56175661 -0.79455948 0.4583869 4281084144
-0.91499186 0.073230267 -0.95008898 4294239432
0.71633339 0.50498343 -0.36443901 4288675864
-0.88256979 -0.083632946 -0.28731298 4288429260
0.64936304 -0.0044813156 0.76538229 4284228792
0.17821789 0.81243229 -0.32252216 4282709188
0.18509531 0.71583557 -0.0058479309 4290017352
0.2016139 0.24091434 -0.80198431 4287424660
-0.57307005 -0.19415712 0.3281889 4294474840
0.63781023 -0.78403282 0.87193298 4292096168
-0.12476969 0.11599827 -0.064958572 4280831080
-0.52636957 0.93769884 0.2817049 4283185248
0.16081476 0.37431955 0.047200203 4280828052
-0.22934723 -0.3615756 0.54145622 4292403436
0.97525597 -0.58414793 0.32402802 4290017520
0.96979856 0.69427586 0.37780666 4291571780
0.47070932 -0.27938509 0.068108559 4280313856
0.55870056 -0.65078735 0.61513376 4281084148
-0.65848541 0.47869587 0.46505308 4281386172
0.99103165 -0.44720602 0.65894699 4292913372
-0.42313194 0.36978197 0.17226839 4291351572
-0.91491556 -0.25466824 0.13986778 4292356248
-0.60599232 -0.94355249 0.67747784 4287682756
0.83577013 -0.99613667 -0.13578272 4284532848
0.54391813 -0.12213421 -0.0054502487 4286629904
0.68085814 0.76979351 -0.23568439 4282409196
-0.7276206 -0.19044685 0.78426981 4286859296
0.74051237 0.3567543 0.33846426 4290293924
0.8035121 -0.79833317 -0.99532366 4280850436
-0.89051485 -0.95359135 -0.23062325 4278466744
0.49856806 0.93013239 -0.2679038 4281128116
-0.69817829 -0.94436169 0.26611757 4279282796
-0.63189125 -0.79160213 -0.41438103 4294737984
-0.29261398 -0.57009935 -0.84681797 4292618260
0.60357285 -0.79288435 0.7020812 4291872772
-0.66474771 0.80971861 -0.11851215 4292873324
-0.47608709 0.37442446 0.72038507 4290524224
-0.98110485 -0.1713748 0.39666843 4290273420
0.5560298 -0.75741577 0.45295811 4285848752
-0.63511562 0.55821991 -0.24229574 4283732028
-0.98167896 0.26642179 0.87857389 4293983272
0.56455564 0.85768366 0.3256011 4293939332
0.47321129 -0.33339024 0.61474323 4282135628
-0.10706234 0.82715416 -0.60747385 4283474988
0.89648485 -0.098749161 -0.094606876 4286088316
0.7230444 0.98653793 -0.89701509 4292137112
-0.44720507 0.45090294 -0.70556116 4282916988
0.66451406 0.20905542 -0.39123631 4290285612
-0.5708003 0.97187328 0.70704222 4283475968
0.16889906 0.2142539 -0.85534096 4285016248
0.91085529 -0.40851212 0.099413872 4286887016
0.45059538 0.74590111 0.43666363 4283234492
-0.31281185 -0.71118832 0.38156319 4290805920
-0.8241601 -0.0027308464 0.43237209 4282963104
-0.8737092 0.98789454 -0.035604477 4286364792
-0.61617422 -0.026957989 0.4243269 4291569676
-0.53099918 0.43747807 0.36333418 4291859636
0.078172207 -0.13029909 0.276443 4288422140
-0.079765797 0.34149313 0.84178162 4281620568
0.10274792 -0.64933348 0.64867163 4280819816
0.89998245 -0.99455738 -0.31609917 4294452280
0.94174242 -0.042316914 0.10826111 4290785300
0.29270792 -0.058479786 0.16047525 4294204564
-0.58633614 0.32149029 -0.33237839 4285845752
-0.083776951 0.77684498 -0.75733614 4286107840
0.27575302 -0.25602913 -0.13027668 4293945404
-0.36956263 0.01002264 0.31608915 4289473740
0.029472828 -0.39219284 0.12095737 4281898212
-0.48392344 -0.4093771 0.84370422 4285332560
-0.92430401 -0.23770809 0.29464626 4278468808
-0.81735945 0.60293961 0.88260555 4292613280
-0.58923006 0.19303131 -0.039091587 4290309176
-0.093703747 -0.038797379 0.88381481 4279036016
0.54946756 -0.33277273 0.65139675 4285801716
0.91097307 -0.073378086 0.25975752 4290547964
0.34425402 -0.5723772 -0.81011629 4290524208
-0.82225466 -0.10924339 -0.054491043 4285007968
0.41466141 -0.47608805 -0.16155815 4286094588
0.35925007 0.10063362 -0.3431797 4292871380
-0.49188757 0.40477848 0.43436813 4287661300
0.35481405 -0.045348167 0.10697317 4289512576
-0.70282412 0.35925674 0.47771692 4283467996
-0.88007545 -0.087428093 -0.38075495 4290813960
0.94795942 -0.42970133 -0.72895527 4285557916
-0.88747358 0.089058399 -0.83037138 4289254632
0.2262454 0.21174288 0.73467827 4293398708
0.92017841 -0.946383 0.27544641 4282137692
-0.50677156 -0.58377314 -0.31407118 4287148068
0.2828846 -0.67744684 0.46727562 4280867872
0.31877947 -0.96013975 -0.86272001 4280863800
0.26843452 0.81300068 -0.79404879 4278210732
0.91930246 0.066397667 0.016009808 4287166680
0.96810579 0.95752192 -0.27146053 4285045880
-0.44898844 0.35288 -0.57431364 4282406084
-0.93349075 0.2255888 0.39288044 4291051700
-0.80200243 -0.017568588 -0.20736361 4288434284
-0.63365841 -0.095153332 -0.99474669 4293168156
-0.305336 0.06770134 -0.57293129 4287158476
-0.47366333 0.27274752 -0.15005589 4293174348
0.30504322 -0.64245558 -0.017657757 4287678628
-0.32244062 0.7593317 -0.32122946 4284507204
0.40905142 0.52962255 0.56916142 4294218964
-0.11614799 -0.39336157 -0.2635417 4282702876
0.80798531 0.55617857 0.73094225 4279025704
0.41468334 -0.1867547 0.37952232 4290837752
0.093365192 0.18872881 0.70018768 4284261412
0.43645096 0.067976475 0.39309168 4293683304
0.67436981 -0.63386631 -0.08829546 4278762648
0.86902285 -0.51495934 -0.50227499 4289256500
0.621943 0.5576539 0.81917191 4278514848
0.9423213 -0.95195436 -0.48092985 4290820232
-0.49402189 -0.7433672 -0.7540288 4290266212
0.20413589 0.93661594 0.094387054 4292612252
-0.94261312 0.21646738 0.2564826 4293451848
-0.43896103 0.43837595 0.95710754 4290820212
-0.28944778 0.38216257 0.95983315 4282676360
0.40761757 -0.46934938 -0.96335173 4291564584
0.38184214 -0.36614323 0.23550987 4279505984
-0.75232887 0.80708456 -0.20057774 4280317016
-0.096392632 0.92323542 0.054231167 4293417156
0.7725029 -0.98600101 -0.12376499 4281336048
-0.48764849 0.6512394 -0.56844187 4288715872
-0.15210629 0.6866703 0.49513531 4294763696
-0.33364153 0.4105711 -0.94808245 4290033840
-0.91836405 -0.18166733 -0.66265011 4279766176
0.62993956 -0.54844904 -0.34520435 4283997272
0.40708256 0.69623852 0.54965687 4287953096
0.69991922 -0.9068675 -0.45884418 4287676544
-0.560112 0.84289503 -0.88537312 4286362832
0.90591955 -0.60968781 0.84768486 4285848828
0.8840661 -0.84388065 0.97828388 4285534216
0.4372797 0.069376945 0.85840988 4294241372
-0.15857744 0.60793734 -0.80321884 4283725024
0.086634159 -0.75711966 -0.78378725 4293669008
0.23061323 0.64060545 0.91520166 4289778736
0.60503149 -0.23205853 0.5975008 4279785724
-0.25451279 0.74408388 0.32917261 4286584900
0.70754576 -0.42755651 0.84512806 4294715548
0.27764463 -0.95834351 -0.10899925 4290571392
-0.98125315 0.47353125 0.2662921 4288699568
-0.62467003 0.15686131 0.91810942 4290519284
0.23262691 -0.51433563 -0.031002998 4279026736
0.79899025 0.7971077 -0.72753859 4286095408
0.29223871 0.97907972 -0.73085976 4284758044
-0.19107389 -0.50831509 -0.014410973 4291045412
-0.77461386 0.80096388 -0.30571938 4279285840
-0.63159084 -0.99357796 0.92012262 4280319064
-0.96257544 0.3672123 -0.19320774 4283975832
0.53736973 0.30356979 -0.51269245 4290298960
-0.68143177 0.29573584 -0.54806995 4288704516
0.84157658 -0.40365934 -0.32147217 4294506680
-0.02968502 -0.89175415 -0.541255 4292616356
-0.099877834 -0.51692343 -0.60582113 4281389248
0.21514225 0.33033276 -0.29092026 4292875492
-0.33730459 -0.54458857 0.49162483 4279012352
-0.0078105927 -0.39885473 0.45892048 4279258336
0.1230402 0.10731792 -0.69299698 4293948416
0.60875225 0.89787817 -0.76426792 4279032904
-0.59155893 0.81993532 -0.64097214 4293691572
-0.68658972 0.18508101 0.9512825 4284794928
0.66761494 -0.70810366 -0.68800306 4283493588
-0.67470741 -0.91434574 -0.44368219 4279281888
0.38495064 -0.72380829 -0.5480485 4287123560
0.64937782 0.68756437 0.87668037 4285795480
-0.49572277 -0.88150406 -0.41585302 4291576860
0.16641188 -0.40885401 0.17574978 4286643432
0.9274087 0.042973995 0.2240181 4290788424
-0.96219969 -0.93977928 0.16764975 4281391324
0.54649687 -0.66971827 0.13433743 4289470468
0.82224321 0.84296513 -0.94208097 4288156716
-0.70975637 -0.53506279 -0.42740345 4289762520
0.60435772 -0.1292448 0.33325243 4281904196
-0.28016663 -0.60771751 0.068743229 4279009388
-0.66574383 0.42853117 0.079928398 4293183544
-0.59198284 0.67395163 0.2615819 4291863704
0.44738722 0.37058592 -0.97495508 4292086848
0.3102622 0.44093752 -0.16085339 4290043092
-0.34796238 0.98914671 -0.41408873 4287392936
0.47042751 0.21088648 -0.10352278 4279515280
-0.031027317 -0.91250181 0.42213774 4291884100
-0.20933771 0.00082206726 -0.12693405 4279813292
0.78409863 0.33106852 0.15058327 4286588972
0.8168745 0.62662125 0.40904331 4286360820
-0.12926817 0.81782961 -0.50343943 4293703812
-0.48460436 -0.66284084 0.26353931 4279818396
-0.55998659 -0.64162397 -0.18220377 4294728788
-0.97727489 0.95818186 0.16967106 4294457584
0.59320498 0.39830208 -0.22912407 4289727676
0.28792238 0.67182016 0.93610764 4293926940
0.96052456 -0.045574665 -0.35854673 4280333564
-0.95896149 -0.6680274 0.56754351 4283175072
0.69743729 -0.33222246 -0.30019093 4285052048
0.011363029 -0.56570864 -0.32046127 4285041708
-0.099483013 0.72446251 -0.84755325 4287112320
-0.85908079 -0.5305295 -0.45409822 4291345620
-0.0084605217 -0.26542711 0.76983356 4278766840
-0.6992898 -0.70915461 -0.91733694 4278507628
0.28175592 0.16931725 -0.64195919 4290026708
0.44192123 -0.14792633 0.51904345 4282665000
-0.8141551 -0.17038202 0.49745989 4293178500
0.16960812 0.60353041 0.92556763 4288709836
0.3543272 0.46332359 0.80982161 4283446292
-0.63925982 -0.25440121 -0.86290693 4278484192
0.51336193 0.14881516 0.9407239 4292650220
0.060395241 0.92902851 -0.54095888 4291579024
-0.25115013 -0.16961622 0.67456198 4283737236
0.19339371 -0.87584686 0.30049944 4284256508
-0.029008865 -0.07811594 -0.49005842 4290269252
0.19673443 -0.84597301 -0.63434935 4282123336
0.76688147 0.2468276 0.037862778 4278770688
0.29695415 0.55353308 -0.47097731 4289233068
0.80869246 -0.57865477 -0.57699823 4278190204
0.87353468 0.39555216 -0.093970299 4291046424
-0.39968777 -0.29962873 -0.29927826 4289463364
0.074797153 -0.39528847 0.13398218 4288952368
-0.18870115 0.12758827 -0.50780153 4289493216
-0.36082935 -0.092202663 0.14149523 4282693764
-0.95368195 -0.10947561 0.96160793 4287133732
-0.50095749 -0.12568665 0.16561651 4292881648
-0.91308165 0.91507339 0.60815811 4286105688
0.15956593 0.83903265 0.5663805 4278720676
0.37191486 -0.18147469 -0.4267168 4285314064
-0.92053413 -0.072984219 0.48079777 4293721152
0.50631905 0.37840605 0.62911272 4294737136
-0.32461786 0.66508913 0.38446283 4278983900
0.72233248 0.045556068 0.25122929 4287680612
0.95419931 0.069235802 0.24910975 4287374476
-0.88224411 -0.33788824 -0.94317627 4285005824
0.35335255 0.20950556 0.31459379 4285272092
0.45185471 0.55682373 0.5578537 4285795548
0.24851418 -0.43730307 0.48939943 4288152692
0.93032789 -0.1943903 0.25595617 4292133968
0.30924606 -0.5491519 0.5007143 4284533864
-0.69774246 -0.59724522 0.4134059 4278248592
-0.49038363 0.83707476 -0.14832878 4292655260
0.51131344 -0.078093529 0.25473213 4284523540
-0.81256628 -0.6480217 0.91175222 4278481940
0.28199244 0.84066248 0.69569302 4290525256
0.98660755 -0.49100971 -0.85214996 4288977060
0.69486094 0.63545847 0.37014532 4291072164
-0.76143217 -0.78575754 -0.034555435 4285836372
0.59944296 -0.59761047 -0.26092672 4292379756
0.7560401 -0.87222719 -0.88884735 4285044856
-0.80317116 0.8970871 0.82687616 4285556908
-0.12225103 0.99196196 0.5881772 4278215924
0.29143238 0.77706242 0.50534821 4283972844
0.64397192 0.86980534 0.12269402 4288718068
0.65353537 -0.86295891 0.096246719 4283496556
-0.91742611 -0.21439648 0.90381384 4292614292
-0.13783121 0.0080318451 0.19287729 4293931160
-0.25854826 0.54735851 0.5084343 4280823964
0.96710443 -0.55179262 -0.35139751 4286873612
0.058272839 0.48478842 -0.83335543 4283227288
0.1612463 -0.66794872 -0.45897675 4293428316
0.26597548 -0.89632988 -0.32066202 4289724604
0.19022465 -0.70453167 0.4826231 4289204424
-0.52254391 0.50937319 0.73506641 4289768488
-0.84433794 -0.34255505 -0.94889212 4283987092
0.077726364 -0.026788712 0.63263655 4281604288
-0.70994377 -0.69575262 0.97780848 4280043732
0.90465832 -0.046674728 -0.17270708 4285545676
0.67414045 0.12944078 -0.12106466 4293145760
-0.024473667 0.41116142 -0.86444759 4290791484
0.32721949 0.8111949 0.92072821 4287656068
0.83399439 -0.27999878 -0.73675203 4280818788
0.34362745 -0.40594625 0.97967386 4290537520
-0.45951748 -0.34452391 -0.23890066 4286351592
0.89752531 -0.95979071 -0.57223988 4293153828
0.98059511 0.39406347 0.97242355 4287642832
-0.13967609 0.18791389 -0.87763023 4281645292
0.14992046 0.34334469 -0.59418106 4287394888
0.76125336 0.054748058 0.042630672 4285824116
-0.46104813 0.3716917 0.14752293 4281892960
-0.87205935 -0.61463499 0.60843039 4290524232
-0.49726725 -0.85298777 0.15026426 4284252308
0.43686771 0.42050457 0.49332571 4281116864
0.22984171 0.31135273 -0.93766022 4284800060
-0.62021351 0.3726573 0.90819788 4293163092
-0.25832319 0.46731043 0.69833279 4283470896
0.31245708 0.070407867 -0.86796618 4285825024
0.61270285 -0.86762142 -0.17687702 4284019904
0.11362028 -0.79509211 -0.31542492 4292661256
-0.28753376 0.85716724 0.89093828 4293692604
-0.066367626 0.12615395 0.69761896 4282130472
0.61698675 0.7887187 -0.66429806 4293669064
-0.84836054 -0.13585711 -0.83640814 4278491272
0.34798527 -0.91620779 -0.65643454 4293955780
0.55084133 -0.027781487 -0.32188606 4282422524
-0.32791185 0.52651501 0.1887455 4287633648
-0.36499882 -0.2245326 -0.54627466 4278481120
-0.99808359 0.67612791 0.56930876 4284507316
0.30416632 -0.0011239052 0.6232729 4292877560
0.46867847 0.58227825 0.85524368 4279785528
0.20938349 -0.30385351 -0.0253582 4293191720
-0.9368639 -0.29914474 0.90859032 4286882848
-0.7779727 -0.32652426 -0.89079285 4286895332
-0.66918278 0.14315033 0.75897408 4288980012
0.83711576 0.25956106 -0.62731123 4282410140
-0.85951328 0.61573696 -0.90710592 4287127772
0.24825144 0.077002525 0.8596034 4284791844
-0.41007948 -0.18410826 -0.79536152 4278495340
-0.54077435 0.9380455 -0.8132267 4294477012
-0.99138927 -0.27074766 -0.76278305 4285293700
-0.22195292 0.56209898 0.25930738 4278215772
0.029689312 -0.074521065 -0.64982367 4283989076
0.42045546 0.67224169 -0.24006748 4279502880
0.66871691 0.83059549 0.3052063 4290047112
0.8331461 0.057405949 0.92659521 4289233936
-0.28606653 0.21675301 0.91030645 4280848464
-0.75358486 -0.88261652 0.51301336 4280075496
0.54063225 0.42713213 0.26757574 4293417208
-0.33227444 0.72094297 0.46954107 4279013592
-0.82972479 -0.59042072 -0.42425728 4282433652
0.4450779 -0.80612421 0.23120165 4282128532
-0.057081699 0.41353226 0.4362793 4294491332
0.051266193 -0.44924355 0.87008762 4291827812
-0.042212486 -0.48095274 -0.35674286 4289999060
-0.054334641 0.66225481 -0.37072992 4286579888
-0.46414328 -0.79579687 0.30308867 4294480052
-0.91404581 0.50250578 -0.11626196 4287371284
-0.03481102 -0.99029589 0.4446187 4284271708
-0.24240875 -0.71366596 -0.18501282 4278209712
-0.37946081 -0.34067202 -0.030778408 4291058808
0.35902262 0.71659279 -0.067450047 4279257180
0.13231754 -0.43039465 0.99464369 4280049812
0.90991783 -0.94297171 0.96278572 4285796444
-0.34952307 -0.35010338 -0.42233419 4283748420
0.77243137 0.67128468 0.95065689 4286344320
-0.52999973 0.28011703 0.84798622 4291096604
-0.10531187 -0.92545414 0.90124321 4288731220
0.84241343 0.0005197525 -0.94988918 4291067928
0.096530914 -0.9944663 0.59231281 4279806136
0.9655261 -0.75657082 0.3143425 4286329036
0.047576427 -0.54491711 0.51555395 4291882144
0.22720098 0.75232124 0.53232861 4292653104
-0.87847328 0.48406649 -0.37654924 4281903292
-0.88594627 0.38579702 -0.015958786 4281918648
-0.65057516 -0.97447968 -0.30153131 4283743388
-0.10079527 0.98928022 -0.8613658 4291857584
-0.12745857 0.11204433 0.74858904 4291581044
0.027801037 0.36201572 0.87430906 4281909252
0.62975931 -0.35229254 -0.45062828 4278471860
-0.93115997 0.70349884 0.63488626 4281112756
0.45086002 0.26647139 0.56587029 4287401212
-0.41423845 0.55377197 0.56275797 4278242504
0.72459316 0.98644352 0.16526222 4292084756
0.76247692 -0.7325449 0.34662342 4289462388
-0.078784943 0.95009613 0.40419674 4284017744
0.13269186 0.16826487 -0.96206522 4286333080
-0.85072422 -0.65647936 0.27293682 4293689444
-0.48471975 0.40246487 0.2180233 4278766644
0.3794589 0.76384401 0.12317419 4282667052
0.42677975 0.99690866 0.95452642 4285533400
-0.39756012 -0.31429768 0.84019613 4291597516
0.35953999 -0.46645975 -0.058523655 4278253772
-0.13594341 0.76085424 0.021812916 4288197776
0.93779898 0.82085609 0.78702402 4294448264
-0.93459606 -0.026281357 0.85962629 4279517256
0.69186211 0.40713549 0.098339081 4286370036
0.13001394 -0.59294987 0.016143799 4288167160
-0.30916166 -0.096415997 0.022572041 4280826972
-0.26416874 0.92346287 -0.7151742 4293656644
0.38557291 -0.95016003 0.80548334 4289740884
-0.34216404 -0.23836708 0.017313957 4284001324
0.23877859 -0.5762949 0.47187471 4283207840
-0.48335981 -0.81396627 0.41498613 4293663872
0.0031824112 0.63451624 -0.67588711 4285842572
0.11977291 -0.45705509 0.35838938 4291620084
0.5354352 0.44598055 -0.81020689 4286333140
-0.38242626 0.44093466 -0.092810154 4279295072
0.60085106 0.21249771 0.58841944 4294446196
-0.58351231 -0.24510717 0.12162113 4278504460
0.049150467 -0.83732557 0.82193851 4282668084
-0.16429949 0.62336636 0.056063652 4284544088
-0.49102163 0.79368973 0.69915485 4278497476
0.8185544 -0.51601028 -0.39248991 4290271476
0.89407873 -0.083684444 -0.88588619 4286109716
0.29469347 0.70606709 -0.68030977 4291603696
0.72671509 0.94930744 0.03098774 4280044636
-0.95900106 -0.51622009 0.00079298019 4284253356
-0.86483383 -0.281497 0.36792183 4278756456
0.10189772 0.019556046 0.78406477 4282664980
-0.62697268 -0.67004967 0.14704847 4294482988
0.10033894 -0.82670212 0.20996332 4283481184
-0.66157007 0.99707603 -0.33145475 4289499240
0.22315502 -0.12760353 0.28699732 4285053176
-0.54117346 0.71697092 -0.56796932 4279303188
-0.31612682 -0.69398975 -0.20276213 4288958592
-0.90842247 0.099066734 -0.58288193 4293429468
-0.51369381 -0.43117666 0.37027168 4281131168
-0.27665424 -0.86879778 0.97989845 4293698572
-0.57718229 -0.81889439 0.31194305 4289498300
-0.67786407 -0.89212942 -0.44906378 4288960612
-0.63680553 0.030370235 -0.35126925 4282913828
0.15350819 0.81821775 -0.55205202 4281895996
-0.36871815 -0.30358458 -0.51280308 4280815648
0.20615244 -0.87042379 0.39058208 4294484004
0.76302195 -0.69343901 0.92245007 4291561524
-0.13637733 -0.21087074 -0.10838699 4291853428
-0.60852194 0.72295046 0.041742325 4283489372
-0.80457878 0.87801218 -0.28877258 4278770832
-0.10790539 -0.3046546 0.54756212 4291038248
0.09725666 0.97646332 -0.16145182 4291071124
0.88094997 -0.8459549 0.053612709 4283994180
-0.0039124489 0.057877064 -0.65399456 4288469188
0.052642345 0.0927248 -0.52925205 4286345300
-0.81814384 0.66743803 0.65528584 4287914100
0.26140547 -0.95262814 -0.154809 4282911940
0.3644371 0.94802904 0.28965807 4289223700
-0.95889521 -0.28332043 -0.98606539 4292135028
0.979846 -0.19284773 0.0039629936 4279255116
-0.58946562 0.75287819 -0.55325603 4291881032
0.9345479 0.74370241 -0.55576849 4286378144
-0.084647655 -0.79190636 0.4593401 4291328004
-0.83893204 0.66724825 -0.10338783 4286331128
0.086240768 0.034204483 -0.54172564 4291617020
0.8695097 -0.10466719 -0.21782494 4278457400
0.71311331 0.89570189 -0.99182558 4292925644
-0.33134413 -0.40920687 -0.9400754 4281133076
0.30792809 0.95687199 -0.64668369 4284499120
-0.14433765 -0.78188467 0.44187927 4279500896
0.34323359 0.17782879 0.82201099 4284751036
0.38988066 -0.79280329 -0.32113361 4286074100
-0.75011349 -0.9668026 0.94510078 4293197048
0.99587965 -0.53087807 -0.30222321 4285829124
0.75687122 -0.47067499 0.047766685 4289200184
0.12542868 -0.8135047 -0.46608496 4290017392
-0.26939583 -0.29821539 -0.76480532 4287402028
0.76377869 0.34972668 -0.36706591 4287675644
0.44978476 -0.34458256 0.26324987 4283183292
0.97721338 0.7614851 -0.53376293 4287365292
0.38106632 0.085664272 -0.50400543 4280074300
-0.057020664 0.76370859 0.50968361 4285317344
-0.22208881 0.93695831 -0.04074955 4287942776
0.20497322 -0.90437746 0.27420616 4290554976
0.40513563 0.22039795 -0.95969486 4280585404
0.18087196 -0.37355566 -0.91379452 4287918220
0.48476601 -0.51559448 0.88301849 4280315008
0.60397387 0.4404912 -0.0068435669 4290549904
-0.81798697 0.056310177 -0.26538277 4285065372
-0.26496029 0.9296689 -0.80180025 4286876712
-0.22411346 0.98191404 0.070022583 4278776048
0.98140192 -0.85645294 -0.90414619 4283753564
0.92061853 0.74197102 0.19892502 4287931644
-0.44723034 0.48720884 0.10657215 4279780368
0.26518869 -0.32153177 -0.4392252 4283469828
-0.093033791 0.22970009 -0.65626907 4294499412
-0.41156244 0.073194504 -0.85394049 4292659448
0.44272566 0.85823393 0.026027679 4288427144
0.69191265 -0.67522097 -0.18156767 4290802856
-0.5704093 0.87735462 -0.55967093 4283201608
-0.64781761 0.24770927 0.12384319 4289785076
0.69842577 -0.1868639 -0.71116924 4280071216
-0.87145758 0.94015312 0.08468008 4294479872
0.48579407 0.27371693 -0.81853151 4293192912
0.066087246 0.50179291 0.67098904 4282387568
-0.59944057 0.8443408 -0.74055815 4288941136
0.74003887 0.23868036 -0.7027235 4278202588
-0.74468422 -0.78829145 0.73485756 4278205536
-0.80331421 0.85207319 0.59037876 4284522612
0.17178917 -0.77761316 0.16437387 4281102400
-0.14548922 0.12936306 0.50087309 4278230188
0.59809303 0.3938055 0.27980804 4286068976
-0.30992603 -0.32200861 -0.42531729 4280839284
0.74159336 0.21467352 0.79303551 4279291092
0.99455357 0.76461792 -0.82827759 4290522224
0.81546021 -0.53809261 0.029889584 4288465928
-0.64253902 -0.82604647 0.077461243 4278753404
0.00024318695 0.75939751 0.17812824 4281342036
-0.48411131 -0.074077606 -0.58921051 4292128912
0.25825977 0.25244808 0.76823616 4289525948
-0.66949129 0.2268362 -0.16245985 4287140944
-0.95594549 0.90063095 -0.41264534 4292143112
-0.3783474 0.53814363 -0.58392429 4281865232
0.99589682 -0.3710413 0.52632713 4283468896
0.41030502 0.19614315 0.036670208 4285588628
-0.44582605 0.95663452 -0.32511759 4289760288
-0.19488478 -0.6389122 0.11868286 4285854956
0.049148083 0.10425663 -0.80527306 4285825252
0.065628529 0.89993477 0.93675566 4281622568
0.37617731 -0.28307343 -0.92921829 4281380932
-0.13910627 0.4496417 -0.34645748 4283469012
0.75382853 -0.35352898 -0.66833639 4285793512
-0.4709053 -0.91191101 -0.081476212 4281398452
0.031618595 0.61894131 0.72249651 4289768484
-0.15698671 -0.41292524 -0.25395536 4282151956
-0.38929701 -0.13918352 -0.9088459 4291595388
-0.76517868 0.15042114 0.5789814 4287920148
0.38075209 0.5520277 0.70601177 4289727628
0.12183809 -0.69253159 -0.12173367 4280865972
0.87345266 0.11885643 0.67623806 4289784944
-0.73899031 0.64335442 0.53697729 4290001976
-0.71532631 -0.85757875 0.083991528 4282413236
-0.51842213 0.089658737 -0.34104776 4293959832
-0.5530858 0.51077318 0.24227095 4286852240
0.41434431 0.22856045 0.63697052 4281608236
-0.23325682 0.10906744 0.31297684 4283474140
0.23729086 -0.25409508 -0.63700151 4291302444
-0.57179308 -0.90886164 -0.8384366 4278738108
0.021961689 0.7256422 0.061271667 4284506348
0.78234673 0.46516752 -0.3550601 4281389196
-0.91106081 -0.67750645 0.60206509 4294756376
-0.37750673 -0.13649511 0.80920172 4288158720
0.057396412 -0.38700581 -0.49009943 4293174472
0.76945877 0.72211552 -0.48572922 4284786688
0.24711037 -0.23130512 0.030261517 4290300016
0.38504839 0.27695131 0.90850544 4290782384
0.050410271 -0.69863892 0.39822483 4291074084
-0.7216258 0.34424925 0.19600677 4281352292
-0.42309666 0.33266878 -0.38172388 4288432212
0.6562686 -0.58948994 0.37331915 4282142900
0.27254248 -0.31239033 -0.16171741 4287912188
-0.28423262 0.7251339 0.81851149 4283234452
0.6970048 0.86312056 -0.55038595 4281659444
-0.21082783 -0.77170086 -0.65450764 4282680416
0.012072563 0.97574282 -0.080597401 4286865484
-0.053277016 -0.065184116 0.90957308 4279279676
-0.69784355 0.83163118 0.30943108 4278989928
-0.77396727 -0.35737133 0.75729799 4288207892
-0.31152964 0.32481241 -0.36300659 4293441668
-0.45714474 -0.25566673 0.93220997 4282700808
0.68422174 0.076447964 0.52929926 4286061748
-0.821908 -0.83639002 0.47679472 4280827088
-0.61829948 0.51031113 -0.93495274 4290017364
0.54769278 0.87442827 -0.074500084 4291570816
0.14115334 -0.54875278 -0.59790611 4294753444
-0.33215284 -0.40227318 -0.39173317 4280077516
-0.15769005 0.36961412 0.63333082 4285312056
-0.25847673 -0.76116228 0.42792034 4290048144
0.40725803 -0.074470997 0.48830652 4291856388
-0.0094814301 0.251369 -0.15205431 4280342584
0.92443132 0.99257994 0.35917807 4285855832
0.0024189949 -0.96796274 -0.079685688 4282398856
0.55335903 -0.90733433 -0.98371077 4287638708
0.59515762 0.30649471 0.31965494 4294183164
-0.51983738 0.62977171 0.68123913 4285824176
0.089559555 0.94681597 0.99855232 4282169480
-0.00056219101 -0.51806688 -0.77968359 4285545616
-0.30279636 0.67104197 -0.33587551 4290528308
-0.89238167 0.24747896 -0.1301446 4293155960
-0.14285612 0.8111062 -0.86111975 4290563152
0.54435539 0.22877455 0.10808039 4278237264
-0.26881313 0.67694998 -0.9304719 4292918412
-0.47703743 0.29390574 -0.14174652 4286083208
0.75044775 0.11501694 -0.24194574 4280076360
-0.87058783 -0.60056543 -0.099895477 4285032556
-0.57044315 0.48217297 0.26809406 4283488416
-0.8747673 -0.24373198 -0.37744379 4293674152
-0.61802769 0.23073435 0.51316404 4290522316
